# .PCD v0.7 - Point Cloud Data file format
VERSION 0.7
FIELDS x y z
SIZE 4 4 4
TYPE F F F
COUNT 1 1 1
WIDTH 1424
HEIGHT 1
VIEWPOINT 0 0 0 1 0 0 0
POINTS 1424
DATA ascii
0.024074245 -0.014270173 1.6842093
0.24114135 -0.089314893 1.6353185
0.097504593 -0.039904077 1.6616508
0.16856813 -0.064544305 1.6404077
0.024024285 -0.014354121 1.6842093
0.24082813 -0.090156093 1.6353185
0.097630531 -0.040356804 1.6666424
0.1683418 -0.065132327 1.6404077
0.023942316 -0.014407932 1.6792096
0.24051195 -0.090996183 1.6353185
0.097489059 -0.040697351 1.6666424
0.16811343 -0.065719552 1.6404077
0.023891877 -0.014491418 1.6792096
0.24019285 -0.091835178 1.6353185
0.09734641 -0.041037403 1.6666424
0.16788299 -0.06630598 1.6404077
0.023841146 -0.014574729 1.6792096
0.23987083 -0.092673048 1.6353185
0.097202562 -0.041376956 1.6666424
0.16765052 -0.066891596 1.6404077
0.023758724 -0.014627567 1.6742097
0.23954588 -0.093509786 1.6353185
0.097057544 -0.041716006 1.6666424
0.16741601 -0.067476392 1.6404077
0.02370752 -0.014710411 1.6742097
0.239218 -0.094345391 1.6353185
0.096911341 -0.042054545 1.6666424
0.16717945 -0.068060376 1.6404077
0.023624837 -0.014762565 1.66921
0.23888722 -0.095179848 1.6353185
0.096763946 -0.042392571 1.6666424
0.16694087 -0.068643525 1.6404077
0.02357316 -0.014844941 1.66921
0.23855352 -0.096013136 1.6353185
0.096615374 -0.042730082 1.6666424
0.16670023 -0.06922584 1.6404077
0.023490224 -0.014896408 1.6642101
0.23821692 -0.096845262 1.6353185
0.096203066 -0.04294708 1.6616508
0.16596657 -0.069599807 1.6354362
0.023438081 -0.014978313 1.6642101
0.23787743 -0.097676203 1.6353185
0.096052565 -0.043282628 1.6616508
0.16572261 -0.07017871 1.6354362
0.023354892 -0.01502909 1.6592103
0.23825234 -0.098804541 1.6402577
0.095639169 -0.043495826 1.6566591
0.16547664 -0.070756763 1.6354362
0.023302289 -0.015110523 1.6592103
0.23790599 -0.099635601 1.6402577
0.095486753 -0.043829404 1.6566591
0.16522864 -0.07133396 1.6354362
0.023249403 -0.015191772 1.6592103
0.23755676 -0.10046545 1.6402577
0.095333181 -0.044162448 1.6566591
0.16497862 -0.071910277 1.6354362
0.023196232 -0.015272833 1.6592103
0.23649046 -0.10098796 1.6353185
0.09517844 -0.044494957 1.6566591
0.16472661 -0.072485715 1.6354362
0.023142777 -0.015353709 1.6592103
0.23613651 -0.10181285 1.6353185
0.095022544 -0.044826917 1.6566591
0.16495912 -0.073278025 1.6404077
0.023089042 -0.0154344 1.6592103
0.23506765 -0.10232543 1.6303792
0.095125057 -0.045284711 1.6616508
0.16470233 -0.073853388 1.6404077
0.023035023 -0.015514903 1.6592103
0.23470904 -0.10314535 1.6303792
0.094966404 -0.045616485 1.6616508
0.16444354 -0.074427858 1.6404077
0.022980727 -0.015595215 1.6592103
0.23434755 -0.10396401 1.6303792
0.094806597 -0.045947701 1.6616508
0.16418274 -0.075001419 1.6404077
0.022926152 -0.015675338 1.6592103
0.23469196 -0.10509992 1.6353185
0.094903857 -0.046407439 1.6666424
0.16391993 -0.07557407 1.6404077
0.022871293 -0.01575527 1.6592103
0.23432365 -0.1059185 1.6353185
0.09448351 -0.046608448 1.6616508
0.16317247 -0.075919598 1.6354362
0.022816157 -0.01583501 1.6592103
0.23395251 -0.1067358 1.6353185
0.094577551 -0.047068857 1.6666424
0.16290645 -0.076488711 1.6354362
0.022760745 -0.015914556 1.6592103
0.23357852 -0.10755179 1.6353185
0.094412677 -0.047398709 1.6666424
0.16215737 -0.076827325 1.6304647
0.022705052 -0.01599391 1.6592103
0.23320167 -0.10836648 1.6353185
0.094246656 -0.04772798 1.6666424
0.16188821 -0.077392891 1.6304647
0.022649085 -0.016073067 1.6592103
0.23211892 -0.108849 1.6303792
0.09407948 -0.048056673 1.6666424
0.16161706 -0.077957518 1.6304647
0.022592843 -0.01615203 1.6592103
0.23173754 -0.10965859 1.6303792
0.093911156 -0.048384778 1.6666424
0.16134396 -0.078521192 1.6304647
0.022536322 -0.016230796 1.6592103
0.23135334 -0.11046684 1.6303792
0.093486696 -0.04857694 1.6616508
0.16106889 -0.079083905 1.6304647
0.02247953 -0.016309362 1.6592103
0.23026679 -0.11093557 1.62544
0.09331657 -0.048902974 1.6616508
0.16079186 -0.079645656 1.6304647
0.022422463 -0.016387731 1.6592103
0.22987817 -0.11173868 1.62544
0.092637204 -0.048954148 1.6516675
0.16051285 -0.080206439 1.6304647
0.022365123 -0.0164659 1.6592103
0.22948672 -0.11254042 1.62544
0.092212193 -0.049139194 1.6466758
0.16070725 -0.08100751 1.6354362
0.02230751 -0.016543869 1.6592103
0.22978845 -0.11368627 1.6303792
0.091787033 -0.049321875 1.6416842
0.16042349 -0.08156798 1.6354362
0.022249624 -0.016621636 1.6592103
0.2293902 -0.11448769 1.6303792
0.091866896 -0.049781758 1.6466758
0.16013779 -0.082127467 1.6354362
0.022191469 -0.0166992 1.6592103
0.22968271 -0.11563805 1.6353185
0.091944665 -0.050242797 1.6516675
0.15985014 -0.082685962 1.6354362
0.022133043 -0.016776562 1.6592103
0.22927766 -0.11643908 1.6353185
0.09202034 -0.050704978 1.6566591
0.15956053 -0.083243437 1.6354362
0.022074345 -0.016853718 1.6592103
0.22886983 -0.11723871 1.6353185
0.0920939 -0.051168304 1.6616508
0.15879793 -0.083550379 1.6304647
0.022015382 -0.01693067 1.6592103
0.22845918 -0.1180369 1.6353185
0.091914728 -0.051489457 1.6616508
0.15850532 -0.08410418 1.6304647
0.021956149 -0.017007414 1.6592103
0.22804576 -0.11883365 1.6353185
0.091734439 -0.051809989 1.6616508
0.15821077 -0.084656954 1.6304647
0.021896649 -0.01708395 1.6592103
0.22762957 -0.11962896 1.6353185
0.091553025 -0.052129883 1.6616508
0.15791431 -0.085208699 1.6304647
0.021836881 -0.01716028 1.6592103
0.2272106 -0.1204228 1.6353185
0.091121398 -0.052303229 1.6566591
0.15808342 -0.08601547 1.6354362
0.021804441 -0.0172702 1.6642101
0.22678886 -0.12121518 1.6353185
0.09093827 -0.052620985 1.6566591
0.15824884 -0.086824454 1.6404077
0.021744024 -0.017346207 1.6642101
0.22636436 -0.12200608 1.6353185
0.090505965 -0.052790452 1.6516675
0.15887627 -0.087894969 1.6503507
0.021683343 -0.017422002 1.6642101
0.22661927 -0.12316743 1.6402577
0.090321139 -0.053106055 1.6516675
0.15949811 -0.088970907 1.6602937
0.021622397 -0.017497584 1.6642101
0.22618796 -0.12395773 1.6402577
0.090135209 -0.053421009 1.6516675
0.021561187 -0.017572954 1.6642101
0.22643349 -0.12512322 1.6451969
0.089948185 -0.05373532 1.6516675
0.021499714 -0.01764811 1.6642101
0.089760073 -0.054048967 1.6516675
0.02143798 -0.01772305 1.6642101
0.089570858 -0.054361962 1.6516675
0.15824033 -0.091189176 1.6602937
0.021375984 -0.017797774 1.6642101
0.08962547 -0.054827098 1.6566591
0.15700069 -0.091202945 1.6503507
0.021313729 -0.017872283 1.6642101
0.089433543 -0.055139616 1.6566591
0.15668137 -0.091750428 1.6503507
0.021251213 -0.017946571 1.6642101
0.089240536 -0.05545146 1.6566591
0.15636013 -0.092296779 1.6503507
0.021162039 -0.017985903 1.6592103
0.22376345 -0.12983784 1.6451969
0.089289747 -0.055918001 1.6616508
0.156037 -0.09284202 1.6503507
0.021099128 -0.018059662 1.6592103
0.22129834 -0.12943856 1.6303792
0.089094013 -0.056229338 1.6616508
0.1552556 -0.093110703 1.6453792
0.021035958 -0.018133203 1.6592103
0.21883878 -0.12902369 1.6155615
0.089139417 -0.056697056 1.6666424
0.15492964 -0.093652077 1.6453792
0.020972535 -0.01820652 1.6592103
0.21838707 -0.12978679 1.6155615
0.088940963 -0.05700786 1.6666424
0.15414731 -0.093913712 1.6404077
0.020908855 -0.018279618 1.6592103
0.21726668 -0.13014813 1.6106222
0.088741422 -0.05731798 1.6666424
0.15381856 -0.094451226 1.6404077
0.020844918 -0.01835249 1.6592103
0.21681105 -0.13090573 1.6106222
0.088540807 -0.057627399 1.6666424
0.15348794 -0.094987571 1.6404077
0.020780731 -0.018425142 1.6592103
0.088339113 -0.057936106 1.6666424
0.15315543 -0.095522761 1.6404077
0.020716287 -0.018497568 1.6592103
0.088166825 -0.05819796 1.6666424
0.15332201 -0.096261442 1.6453792
0.020667791 -0.018551739 1.6592103
0.087993756 -0.058459301 1.6666424
0.15258589 -0.096429914 1.6404077
0.020609405 -0.018616578 1.6592103
0.2151023 -0.13369496 1.6106222
0.087768644 -0.058796741 1.6666424
0.1522145 -0.09701509 1.6404077
0.020521449 -0.018713489 1.6592103
0.21449342 -0.13466966 1.6106222
0.087521583 -0.059163872 1.6666424
0.15135929 -0.097362213 1.6354362
0.020456001 -0.018785009 1.6592103
0.21402203 -0.13541758 1.6106222
0.087345652 -0.059423286 1.6666424
0.15106975 -0.097810879 1.6354362
0.020406753 -0.018838499 1.6592103
0.087189794 -0.059651755 1.6666424
0.15081316 -0.098206043 1.6354362
0.020357363 -0.01889186 1.6592103
0.087001964 -0.059925374 1.6666424
0.15050389 -0.098679356 1.6354362
0.020291295 -0.018962804 1.6592103
0.086556524 -0.060062047 1.6616508
0.15015851 -0.099204108 1.6354362
0.020224977 -0.019033518 1.6592103
0.21235165 -0.13802218 1.6106222
0.086346343 -0.060363822 1.6616508
0.14981131 -0.09972766 1.6354362
0.020158416 -0.019104 1.6592103
0.21186857 -0.13876256 1.6106222
0.086135104 -0.060664859 1.6616508
0.14946228 -0.10024999 1.6354362
0.020091608 -0.019174252 1.6592103
0.21138291 -0.13950129 1.6106222
0.085922822 -0.060965158 1.6616508
0.14955226 -0.10107079 1.6404077
0.020024555 -0.019244267 1.6592103
0.21089467 -0.14023831 1.6106222
0.08570949 -0.061264709 1.6616508
0.14919855 -0.10159221 1.6404077
0.019957257 -0.019314047 1.6592103
0.21040384 -0.14097361 1.6106222
0.085495114 -0.061563522 1.6616508
0.14884301 -0.10211238 1.6404077
0.019889716 -0.019383594 1.6592103
0.2099105 -0.14170721 1.6106222
0.085047513 -0.061690021 1.6566591
0.14848566 -0.10263132 1.6404077
0.019821934 -0.019452903 1.6592103
0.20941457 -0.14243905 1.6106222
0.084831655 -0.061986517 1.6566591
0.14812651 -0.10314901 1.6404077
0.019753911 -0.019521978 1.6592103
0.20891607 -0.14316919 1.6106222
0.084614761 -0.062282253 1.6566591
0.14776555 -0.10366545 1.6404077
0.019662056 -0.019554107 1.6542106
0.20841505 -0.14389756 1.6106222
0.27532607 -0.18806711 1.626476
0.084396839 -0.062577233 1.6566591
0.14740279 -0.10418061 1.6404077
0.019593678 -0.01962262 1.6542106
0.20791148 -0.1446242 1.6106222
0.27382961 -0.18844913 1.6215808
0.084407657 -0.063046239 1.6616508
0.14703824 -0.10469451 1.6404077
0.019525064 -0.019690897 1.6542106
0.20740539 -0.14534906 1.6106222
0.27149755 -0.18824218 1.6117904
0.084187068 -0.063340493 1.6616508
0.14667189 -0.10520713 1.6404077
0.01945621 -0.019758932 1.6542106
0.20689677 -0.14607216 1.6106222
0.27000454 -0.18860504 1.6068952
0.084194005 -0.063810356 1.6666424
0.14630376 -0.10571846 1.6404077
0.01938712 -0.019826725 1.6542106
0.20638561 -0.14679347 1.6106222
0.26934451 -0.18954638 1.6068952
0.083970748 -0.064103857 1.6666424
0.14593384 -0.10622852 1.6404077
0.019317795 -0.01989428 1.6542106
0.20587195 -0.14751299 1.6106222
0.26785105 -0.18989585 1.602
0.083746471 -0.064396575 1.6666424
0.14556214 -0.10673728 1.6404077
0.019248232 -0.019961588 1.6542106
0.20535578 -0.14823073 1.6106222
0.26718658 -0.19082966 1.602
0.083521172 -0.064688519 1.6666424
0.14518866 -0.10724473 1.6404077
0.019178435 -0.020028658 1.6542106
0.2048371 -0.14894666 1.6106222
0.26651883 -0.19176118 1.602
0.083294861 -0.064979672 1.6666424
0.14481343 -0.10775089 1.6404077
0.019108405 -0.020095481 1.6542106
0.20431595 -0.14966075 1.6106222
0.2658478 -0.19269033 1.602
0.083067536 -0.065270022 1.6666424
0.14443643 -0.10825572 1.6404077
0.019038144 -0.020162057 1.6542106
0.20379227 -0.15037303 1.6106222
0.26517358 -0.19361712 1.602
0.082839191 -0.065559588 1.6666424
0.14448221 -0.1090816 1.6453792
0.018967649 -0.020228392 1.6542106
0.20326614 -0.15108348 1.6106222
0.26449612 -0.19454157 1.602
0.082609847 -0.065848351 1.6666424
0.14410056 -0.10958528 1.6453792
0.018896922 -0.020294478 1.6542106
0.20273751 -0.15179211 1.6106222
0.26381543 -0.19546366 1.602
0.082379483 -0.066136308 1.6666424
0.14329487 -0.10976229 1.6404077
0.018825967 -0.020360317 1.6542106
0.20220643 -0.15249887 1.6106222
0.26313153 -0.19638336 1.602
0.082371011 -0.066606939 1.6716341
0.14291087 -0.11026181 1.6404077
0.018776683 -0.020463645 1.6592103
0.20229094 -0.1536746 1.6155615
0.26244444 -0.19730067 1.602
0.082138017 -0.066894062 1.6716341
0.14252511 -0.11076 1.6404077
0.018705137 -0.020529063 1.6592103
0.2017533 -0.1543798 1.6155615
0.2617541 -0.19821556 1.602
0.081904009 -0.06718038 1.6716341
0.1421376 -0.11125682 1.6404077
0.018633364 -0.020594232 1.6592103
0.20182796 -0.15555827 1.6205007
0.26106063 -0.19912805 1.602
0.081669003 -0.067465857 1.6716341
0.14174838 -0.1117523 1.6404077
0.018561363 -0.020659149 1.6592103
0.20128374 -0.15626183 1.6205007
0.26036394 -0.20003811 1.602
0.081433013 -0.067750528 1.6716341
0.14177397 -0.11257905 1.6453792
0.018467762 -0.020685773 1.6542106
0.20134851 -0.15744293 1.62544
0.26046887 -0.20156953 1.6068952
0.081196025 -0.068034366 1.6716341
0.14138013 -0.11307324 1.6453792
0.018395443 -0.020750113 1.6542106
0.20079771 -0.15814482 1.62544
0.25976366 -0.2024775 1.6068952
0.080958039 -0.068317384 1.6716341
0.14139879 -0.11390162 1.6503507
0.0183229 -0.020814199 1.6542106
0.20085253 -0.15932846 1.6303792
0.25905532 -0.20338301 1.6068952
0.14100033 -0.11439449 1.6503507
0.018271107 -0.020916291 1.6592103
0.20090155 -0.1605144 1.6353185
0.25834379 -0.20428604 1.6068952
0.14101201 -0.11522438 1.6553222
0.018197984 -0.020979941 1.6592103
0.20154941 -0.16219057 1.6451969
0.25762913 -0.20518658 1.6068952
0.14019828 -0.11537606 1.6503507
0.01812464 -0.021043338 1.6592103
0.25691131 -0.20608462 1.6068952
0.13979468 -0.11586474 1.6503507
0.018071646 -0.021144956 1.6642101
0.25539884 -0.20633964 1.602
0.1389811 -0.11600929 1.6453792
0.017997727 -0.021207906 1.6642101
0.25467706 -0.2072299 1.602
0.13857532 -0.11649371 1.6453792
0.017923586 -0.021270603 1.6642101
0.25395212 -0.20811763 1.602
0.13776195 -0.11663117 1.6404077
0.017849229 -0.021333039 1.6642101
0.2532241 -0.20900282 1.602
0.13735399 -0.11711135 1.6404077
0.017774655 -0.021395214 1.6642101
0.25249302 -0.20988546 1.602
0.13694435 -0.11759008 1.6404077
0.017699864 -0.021457128 1.6642101
0.19752657 -0.16706643 1.6451969
0.25253907 -0.21141979 1.6068952
0.13653305 -0.11806739 1.6404077
0.017624855 -0.02151878 1.6642101
0.1969422 -0.1677549 1.6451969
0.25179952 -0.2123 1.6068952
0.077852584 -0.070982091 1.6616508
0.13612008 -0.11854325 1.6404077
0.017569259 -0.021619141 1.66921
0.19635543 -0.16844136 1.6451969
0.25105694 -0.21317767 1.6068952
0.077182472 -0.070859194 1.6516675
0.13570547 -0.11901768 1.6404077
0.017493688 -0.021680338 1.66921
0.19576627 -0.16912572 1.6451969
0.25031129 -0.21405271 1.6068952
0.076724418 -0.070930339 1.6466758
0.13528919 -0.11949066 1.6404077
0.017417902 -0.021741271 1.66921
0.1945892 -0.16929725 1.6402577
0.24956258 -0.21492517 1.6068952
0.076476358 -0.071197718 1.6466758
0.13487126 -0.11996218 1.6404077
0.017341904 -0.021801937 1.66921
0.19399706 -0.16997549 1.6402577
0.24881083 -0.215795 1.6068952
0.076227367 -0.071464241 1.6466758
0.13484778 -0.120789 1.6453792
0.017265696 -0.021862339 1.66921
0.19282061 -0.17013676 1.6353185
0.24805602 -0.21666218 1.6068952
0.075769283 -0.071529858 1.6416842
0.13482015 -0.12161709 1.6503507
0.017189277 -0.021922475 1.66921
0.19222555 -0.17080879 1.6353185
0.24729826 -0.21752673 1.6068952
0.075519137 -0.071793899 1.6416842
0.13518195 -0.12280598 1.6602937
0.017093845 -0.021942971 1.6642101
0.19162816 -0.17147875 1.6353185
0.24653742 -0.21838865 1.6068952
0.075268075 -0.072057083 1.6416842
0.017017145 -0.022002505 1.6642101
0.19160491 -0.17266752 1.6402577
0.2457736 -0.21924791 1.6068952
0.075016089 -0.072319373 1.6416842
0.016921708 -0.02202227 1.6592103
0.19100103 -0.17333531 1.6402577
0.24500678 -0.22010447 1.6068952
0.074968532 -0.072783709 1.6466758
0.13388854 -0.12421484 1.6602937
0.016844735 -0.022081204 1.6592103
0.19096766 -0.1745259 1.6451969
0.24423699 -0.22095835 1.6068952
0.074714012 -0.073044948 1.6466758
0.13306563 -0.12431648 1.6553222
0.0167493 -0.022100236 1.6542106
0.2434642 -0.22180955 1.6068952
0.074458584 -0.073305309 1.6466758
0.13185638 -0.12404756 1.6453792
0.016672052 -0.022158569 1.6542106
0.24268846 -0.22265807 1.6068952
0.074202247 -0.073564768 1.6466758
0.13103661 -0.12413939 1.6404077
0.016594604 -0.022216629 1.6542106
0.18912961 -0.1765161 1.6451969
0.24190977 -0.22350384 1.6068952
0.073945001 -0.073823333 1.6466758
0.13021782 -0.12422703 1.6354362
0.016516952 -0.02227442 1.6542106
0.18794681 -0.17664234 1.6402577
0.24112812 -0.22434691 1.6068952
0.073686861 -0.074081004 1.6466758
0.12978339 -0.12468082 1.6354362
0.016439099 -0.022331938 1.6542106
0.18620184 -0.1762276 1.6303792
0.23960103 -0.22449046 1.602
0.073427826 -0.074337766 1.6466758
0.1289653 -0.1247614 1.6304647
0.016361047 -0.022389187 1.6542106
0.18502381 -0.17633969 1.62544
0.23881595 -0.22532547 1.602
0.07316789 -0.074593626 1.6466758
0.12852901 -0.12521081 1.6304647
0.016282793 -0.022446161 1.6542106
0.18384728 -0.17644569 1.6205007
0.23802796 -0.22615771 1.602
0.072907068 -0.07484857 1.6466758
0.12809116 -0.12565869 1.6304647
0.016221622 -0.022542927 1.6592103
0.18267226 -0.17654563 1.6155615
0.23797223 -0.22769171 1.6068952
0.072645351 -0.075102612 1.6466758
0.12727356 -0.12572937 1.6254932
0.016142834 -0.022599414 1.6592103
0.18205489 -0.17718221 1.6155615
0.237176 -0.22852099 1.6068952
0.072382748 -0.075355738 1.6466758
0.12683392 -0.12617287 1.6254932
0.01606385 -0.022655625 1.6592103
0.23710707 -0.23005709 1.6117904
0.072119266 -0.075607941 1.6466758
0.12639272 -0.12661484 1.6254932
0.015984667 -0.02271156 1.6592103
0.23630257 -0.23088336 1.6117904
0.071854904 -0.075859219 1.6466758
0.12594998 -0.12705526 1.6254932
0.015905293 -0.02276722 1.6592103
0.23549521 -0.2317068 1.6117904
0.071589671 -0.076109581 1.6466758
0.1255057 -0.12749413 1.6254932
0.015825722 -0.0228226 1.6592103
0.23396222 -0.23181023 1.6068952
0.071323566 -0.076359004 1.6466758
0.1250599 -0.12793145 1.6254932
0.015745962 -0.022877702 1.6592103
0.23315164 -0.23262548 1.6068952
0.071056589 -0.07660751 1.6466758
0.12461258 -0.1283672 1.6254932
0.015649712 -0.022892052 1.6542106
0.23233819 -0.23343793 1.6068952
0.070595048 -0.076641016 1.6416842
0.12416374 -0.12880141 1.6254932
0.015569708 -0.02294654 1.6542106
0.23152193 -0.23424751 1.6068952
0.070327088 -0.076886967 1.6416842
0.12371337 -0.12923405 1.6254932
0.015489514 -0.023000749 1.6542106
0.23070285 -0.23505424 1.6068952
0.070058279 -0.077131987 1.6416842
0.12326151 -0.12966509 1.6254932
0.015409132 -0.023054676 1.6542106
0.22988093 -0.23585813 1.6068952
0.069788605 -0.077376068 1.6416842
0.12280815 -0.13009456 1.6254932
0.015344292 -0.023149023 1.6592103
0.22905627 -0.23665911 1.6068952
0.069518089 -0.077619195 1.6416842
0.12235328 -0.13052246 1.6254932
0.015263393 -0.023202443 1.6592103
0.22822876 -0.23745723 1.6068952
0.069246724 -0.077861398 1.6416842
0.12189693 -0.13094875 1.6254932
0.015182309 -0.023255581 1.6592103
0.22739848 -0.23825245 1.6068952
0.069163688 -0.078320712 1.6466758
0.12143909 -0.13137345 1.6254932
0.01510104 -0.023308437 1.6592103
0.22656545 -0.23904477 1.6068952
0.068889871 -0.078561664 1.6466758
0.12097977 -0.13179655 1.6254932
0.015004426 -0.023320092 1.6542106
0.22572964 -0.23983416 1.6068952
0.06861522 -0.078801647 1.6466758
0.12051898 -0.13221803 1.6254932
0.014922932 -0.023372326 1.6542106
0.22489108 -0.24062064 1.6068952
0.068339735 -0.079040684 1.6466758
0.12005671 -0.13263793 1.6254932
0.014841257 -0.023424275 1.6542106
0.22404981 -0.24140422 1.6068952
0.068063416 -0.079278752 1.6466758
0.11959299 -0.13305619 1.6254932
0.014759401 -0.023475938 1.6542106
0.22320579 -0.24218482 1.6068952
0.067786269 -0.079515852 1.6466758
0.11912781 -0.13347284 1.6254932
0.014677364 -0.023527313 1.6542106
0.22235903 -0.24296248 1.6068952
0.067508295 -0.079751983 1.6466758
0.11866117 -0.13388787 1.6254932
0.014595149 -0.023578404 1.6542106
0.22150959 -0.24373716 1.6068952
0.067229494 -0.079987146 1.6466758
0.1181931 -0.13430126 1.6254932
0.014512757 -0.023629207 1.6542106
0.22065742 -0.24450891 1.6068952
0.066949874 -0.08022134 1.6466758
0.11772358 -0.13471301 1.6254932
0.014430187 -0.023679722 1.6542106
0.22048151 -0.24603646 1.6117904
0.066669442 -0.080454551 1.6466758
0.11760087 -0.1355267 1.6304647
0.014347441 -0.023729948 1.6542106
0.21962135 -0.24680457 1.6117904
0.066388205 -0.080686778 1.6466758
0.11712707 -0.13593638 1.6304647
0.01426452 -0.023779886 1.6542106
0.21875849 -0.2475697 1.6117904
0.066106148 -0.080918029 1.6466758
0.11665185 -0.1363444 1.6304647
0.014181427 -0.023829535 1.6542106
0.21789297 -0.2483318 1.6117904
0.065823287 -0.081148289 1.6466758
0.1161752 -0.13675076 1.6304647
0.014111736 -0.023920357 1.6592103
0.21702482 -0.24909088 1.6117904
0.065539628 -0.081377551 1.6466758
0.11569715 -0.13715544 1.6304647
0.014028152 -0.023969471 1.6592103
0.21615401 -0.24984691 1.6117904
0.065255165 -0.081605829 1.6466758
0.11521769 -0.13755849 1.6304647
0.013944399 -0.024018291 1.6592103
0.21528058 -0.25059992 1.6117904
0.064969912 -0.081833124 1.6466758
0.11473683 -0.13795982 1.6304647
0.013860475 -0.024066821 1.6592103
0.21440449 -0.25134984 1.6117904
0.064683862 -0.082059406 1.6466758
0.11425455 -0.13835949 1.6304647
0.26452652 -0.30918539 1.6041703
0.013776381 -0.024115056 1.6592103
0.2135258 -0.25209671 1.6117904
0.06439703 -0.082284704 1.6466758
0.11343405 -0.13834432 1.6254932
0.26344565 -0.31010684 1.6041703
0.013692119 -0.024162997 1.6592103
0.21264453 -0.25284055 1.6117904
0.064109407 -0.082508981 1.6466758
0.11328584 -0.13915375 1.6304647
0.26317152 -0.31198579 1.6090097
0.013607692 -0.024210643 1.6592103
0.21176064 -0.25358126 1.6117904
0.06382101 -0.082732268 1.6466758
0.11279941 -0.13954835 1.6304647
0.26208091 -0.31290251 1.6090097
0.013523098 -0.024257995 1.6592103
0.2108742 -0.25431889 1.6117904
0.063531831 -0.082954541 1.6466758
0.11231162 -0.13994123 1.6304647
0.26018381 -0.3128486 1.6041703
0.013438339 -0.024305053 1.6592103
0.20998518 -0.25505343 1.6117904
0.063241877 -0.083175801 1.6466758
0.11182245 -0.14033243 1.6304647
0.25909019 -0.31375489 1.6041703
0.013353418 -0.024351813 1.6592103
0.2090936 -0.25578487 1.6117904
0.062951155 -0.083396047 1.6466758
0.11133191 -0.14072192 1.6304647
0.2579934 -0.31465736 1.6041703
0.013268331 -0.024398278 1.6592103
0.20819949 -0.25651318 1.6117904
0.062659666 -0.083615288 1.6466758
0.11084002 -0.14110968 1.6304647
0.25610039 -0.31458086 1.5993309
0.013183085 -0.024444444 1.6592103
0.20730279 -0.25723839 1.6117904
0.062367413 -0.083833493 1.6466758
0.11034678 -0.14149572 1.6304647
0.25500077 -0.3154729 1.5993309
0.013109507 -0.024532311 1.6642101
0.20703912 -0.25875595 1.6166856
0.062074397 -0.084050685 1.6466758
0.10985219 -0.14188004 1.6304647
0.25389799 -0.3163611 1.5993309
0.013023794 -0.024577923 1.6642101
0.20550188 -0.25867933 1.6117904
0.061780628 -0.084266856 1.6466758
0.10935627 -0.14226264 1.6304647
0.25279215 -0.31724542 1.5993309
0.012949456 -0.024665315 1.66921
0.20522763 -0.26019502 1.6166856
0.061486106 -0.084481999 1.6466758
0.10885901 -0.1426435 1.6304647
0.25168321 -0.3181259 1.5993309
0.01286328 -0.024710367 1.66921
0.20431814 -0.26090983 1.6166856
0.061190836 -0.084696114 1.6466758
0.10836044 -0.14302261 1.6304647
0.25057119 -0.31900251 1.5993309
0.012776946 -0.024755117 1.66921
0.20340614 -0.26162145 1.6166856
0.060894817 -0.084909186 1.6466758
0.10786053 -0.14339998 1.6304647
0.24945615 -0.31987524 1.5993309
0.012690457 -0.024799567 1.66921
0.20187014 -0.26152337 1.6117904
0.060598057 -0.085121229 1.6466758
0.10735932 -0.14377561 1.6304647
0.24833806 -0.32074404 1.5993309
0.012603812 -0.024843713 1.66921
0.15351292 -0.20241368 1.6155615
0.20095602 -0.26222646 1.6117904
0.060300563 -0.085332237 1.6466758
0.10685679 -0.1441495 1.6304647
0.24721695 -0.32160893 1.5993309
0.012517015 -0.024887558 1.66921
0.15280545 -0.2029483 1.6155615
0.20003946 -0.26292631 1.6117904
0.060002327 -0.085542217 1.6466758
0.10635297 -0.14452162 1.6304647
0.24609281 -0.32246995 1.5993309
0.012430065 -0.024931099 1.66921
0.15209609 -0.20348047 1.6155615
0.19912046 -0.26362297 1.6117904
0.05986622 -0.085989513 1.6516675
0.10584784 -0.14489198 1.6304647
0.24496567 -0.32332698 1.5993309
0.012353467 -0.025016684 1.6742097
0.15138488 -0.20401014 1.6155615
0.19819903 -0.26431644 1.6117904
0.059565693 -0.086197957 1.6516675
0.10534143 -0.14526059 1.6304647
0.24383557 -0.32418013 1.5993309
0.012266069 -0.025059655 1.6742097
0.15067182 -0.20453733 1.6155615
0.19727518 -0.26500666 1.6117904
0.059264444 -0.086405352 1.6516675
0.10483374 -0.14562739 1.6304647
0.24270248 -0.32502928 1.5993309
0.012188727 -0.025144739 1.6792096
0.14995694 -0.20506202 1.6155615
0.19634894 -0.26569366 1.6117904
0.058962472 -0.086611703 1.6516675
0.10463347 -0.14642702 1.6354362
0.24156643 -0.32587451 1.5993309
0.012110941 -0.02522959 1.6842093
0.14924024 -0.20558423 1.6155615
0.1954203 -0.26637745 1.6117904
0.058819287 -0.087057613 1.6566591
0.10412171 -0.14679135 1.6354362
0.24042745 -0.32671574 1.5993309
0.14852171 -0.20610391 1.6155615
0.19448927 -0.26705796 1.6117904
0.058515042 -0.087262399 1.6566591
0.10391435 -0.14759061 1.6404077
0.23928554 -0.327553 1.5993309
0.14825256 -0.20725368 1.6205007
0.19355589 -0.26773524 1.6117904
0.058525726 -0.087949589 1.6666424
0.10339852 -0.14795245 1.6404077
0.2381407 -0.32838628 1.5993309
0.14752822 -0.2077699 1.6205007
0.19321314 -0.26923692 1.6166856
0.10288145 -0.14831246 1.6404077
0.23772681 -0.33023602 1.6041703
0.14680205 -0.20828362 1.6205007
0.19227214 -0.26990974 1.6166856
0.10236311 -0.1486707 1.6404077
0.23657262 -0.33106381 1.6041703
0.14651868 -0.20943202 1.62544
0.19132881 -0.27057925 1.6166856
0.10184353 -0.14902711 1.6404077
0.23541555 -0.33188763 1.6041703
0.14578673 -0.20994221 1.62544
0.19038315 -0.27124545 1.6166856
0.10162071 -0.14982368 1.6453792
0.23425561 -0.33270732 1.6041703
0.1459332 -0.21173051 1.6353185
0.18943515 -0.27190837 1.6166856
0.10109711 -0.15017748 1.6453792
0.23309281 -0.33352301 1.6041703
0.1465068 -0.21416426 1.6501362
0.18848488 -0.27256796 1.6166856
0.056823745 -0.089400962 1.6716341
0.10086719 -0.15097351 1.6503507
0.2319272 -0.33433461 1.6041703
0.18753228 -0.2732242 1.6166856
0.10033959 -0.15132469 1.6503507
0.23075874 -0.33514217 1.6041703
0.18715003 -0.27471912 1.6215808
0.056198228 -0.089795485 1.6716341
0.10010256 -0.1521201 1.6553222
0.23029618 -0.33698374 1.6090097
0.18618996 -0.27537072 1.6215808
0.055734284 -0.089744531 1.6666424
0.099570952 -0.15246861 1.6553222
0.22911845 -0.3377856 1.6090097
0.18522759 -0.27601898 1.6215808
0.099038124 -0.15281524 1.6553222
0.22793797 -0.33858329 1.6090097
0.010962108 -0.025795877 1.6892091
0.14232022 -0.21603912 1.6451969
0.18426298 -0.27666387 1.6215808
0.098216981 -0.1527109 1.6503507
0.22675471 -0.3393769 1.6090097
0.010871995 -0.025833985 1.6892091
0.14156526 -0.21653458 1.6451969
0.18273531 -0.27645549 1.6166856
0.097683318 -0.15305281 1.6503507
0.22487454 -0.33911839 1.6041703
0.010781752 -0.025871776 1.6892091
0.14080854 -0.21702741 1.6451969
0.18176918 -0.27709168 1.6166856
0.097148463 -0.15339285 1.6503507
0.22368944 -0.33990133 1.6041703
0.010691378 -0.025909254 1.6892091
0.14046988 -0.21817145 1.6501362
0.18080086 -0.2777245 1.6166856
0.096612439 -0.15373103 1.6503507
0.22250159 -0.34068006 1.6041703
0.010593347 -0.025903437 1.6842093
0.13970746 -0.21866044 1.6501362
0.17983031 -0.27835393 1.6166856
0.053407729 -0.090143085 1.6516675
0.096075229 -0.15406734 1.6503507
0.22131105 -0.34145465 1.6041703
0.010502863 -0.025940258 1.6842093
0.13894334 -0.21914679 1.6501362
0.17885756 -0.27897993 1.6166856
0.053524993 -0.091079451 1.6666424
0.095536858 -0.15440176 1.6503507
0.22011779 -0.34222507 1.6041703
0.010412252 -0.02597676 1.6842093
0.13817753 -0.21963045 1.6501362
0.17788267 -0.27960256 1.6166856
0.053063534 -0.091015071 1.6616508
0.094997309 -0.1547343 1.6503507
0.21892186 -0.34299138 1.6041703
0.010314438 -0.025969893 1.6792096
0.13782063 -0.2207711 1.6550754
0.17690557 -0.28022179 1.6166856
0.052460842 -0.090697408 1.6516675
0.094456598 -0.15506497 1.6503507
0.21772325 -0.34375346 1.6041703
0.010223723 -0.026005739 1.6792096
0.13704915 -0.22125085 1.6550754
0.17592634 -0.28083763 1.6166856
0.052285381 -0.091131635 1.6566591
0.093914755 -0.15539372 1.6503507
0.21652201 -0.34451136 1.6041703
0.01012611 -0.025998164 1.6742097
0.17494497 -0.28144997 1.6166856
0.05182638 -0.091061443 1.6516675
0.093371749 -0.15572061 1.6503507
0.21531811 -0.34526506 1.6041703
0.010035299 -0.026033353 1.6742097
0.17396146 -0.28205895 1.6166856
0.25984851 -0.41648954 1.6165328
0.051508203 -0.091241799 1.6516675
0.092827618 -0.15604559 1.6503507
0.21411163 -0.34601456 1.6041703
0.0099443644 -0.026068224 1.6742097
0.17297582 -0.28266445 1.6166856
0.25603732 -0.41358572 1.6022168
0.051189393 -0.091421038 1.6516675
0.092282347 -0.15636867 1.6503507
0.21290249 -0.34675983 1.6041703
0.0098469881 -0.026059605 1.66921
0.1719881 -0.28326654 1.6166856
0.25459209 -0.41447693 1.6022168
0.050869964 -0.091599166 1.6516675
0.091467895 -0.15622908 1.6453792
0.21169078 -0.34750089 1.6041703
0.0097559625 -0.026093818 1.66921
0.13316692 -0.22360899 1.6550754
0.17099826 -0.28386515 1.6166856
0.25314373 -0.4153631 1.6022168
0.050549913 -0.091776177 1.6516675
0.090922005 -0.1565474 1.6453792
0.21047647 -0.34823772 1.6041703
0.0096648186 -0.026127715 1.66921
0.13159686 -0.22273351 1.6451969
0.17000635 -0.28446031 1.6166856
0.2516923 -0.41624421 1.6022168
0.050229248 -0.091952071 1.6516675
0.09011016 -0.15640122 1.6404077
0.20925961 -0.34897029 1.6041703
0.0095735574 -0.026161291 1.66921
0.13003454 -0.22184978 1.6353185
0.16901235 -0.28505203 1.6166856
0.25023782 -0.41712025 1.6022168
0.049907967 -0.092126846 1.6516675
0.08956366 -0.15671481 1.6404077
0.20868234 -0.35077921 1.6090097
0.0094821788 -0.02619455 1.66921
0.12886967 -0.22163011 1.6303792
0.16801631 -0.28564024 1.6166856
0.24878025 -0.41799119 1.6022168
0.049720455 -0.092556 1.6566591
0.089016087 -0.1570265 1.6404077
0.20745662 -0.35150549 1.6090097
0.0093906848 -0.026227489 1.66921
0.12770793 -0.22140503 1.62544
0.16753072 -0.28710485 1.6215808
0.24731968 -0.41885704 1.6022168
0.04939707 -0.092728995 1.6566591
0.088467419 -0.15733626 1.6404077
0.20622838 -0.35222754 1.6090097
0.0093044927 -0.026303405 1.6742097
0.1269343 -0.22184947 1.62544
0.16652751 -0.2876879 1.6215808
0.24661012 -0.42100608 1.6069888
0.049205672 -0.093157306 1.6616508
0.087917671 -0.15764411 1.6404077
0.20499761 -0.35294527 1.6090097
0.0092126196 -0.026335724 1.6742097
0.12577651 -0.22161493 1.6205007
0.16552228 -0.2882674 1.6215808
0.245139 -0.42186436 1.6069888
0.04888019 -0.093328491 1.6616508
0.087366857 -0.15795003 1.6404077
0.20376435 -0.35365871 1.6090097
0.0091206348 -0.02636772 1.6742097
0.12500216 -0.22205263 1.6205007
0.16451502 -0.28884348 1.6215808
0.24366494 -0.42271748 1.6069888
0.04868491 -0.093755908 1.6666424
0.086814977 -0.15825403 1.6404077
0.20252861 -0.35436779 1.6090097
0.0090285381 -0.026399396 1.6742097
0.12422629 -0.22248758 1.6205007
0.16350578 -0.28941596 1.6215808
0.2421879 -0.42356545 1.6069888
0.048357345 -0.093925282 1.6666424
0.086262032 -0.15855612 1.6404077
0.2012904 -0.35507259 1.6090097
0.0089363325 -0.026430752 1.6742097
0.12344892 -0.22291987 1.6205007
0.16249453 -0.28998494 1.6215808
0.2407079 -0.42440823 1.6069888
0.048029188 -0.094093509 1.6666424
0.085708052 -0.15885626 1.6404077
0.20004974 -0.35577306 1.6090097
0.0088440171 -0.026461784 1.6742097
0.12304316 -0.22403099 1.62544
0.16148131 -0.29055041 1.6215808
0.23849356 -0.42394465 1.6022168
0.04770045 -0.094260588 1.6666424
0.085403189 -0.15962517 1.6453792
0.19880664 -0.35646921 1.6090097
0.0087515954 -0.026492495 1.6742097
0.1222604 -0.22445913 1.62544
0.1604661 -0.29111227 1.6215808
0.23701227 -0.42477456 1.6022168
0.047371127 -0.09442652 1.6666424
0.084845468 -0.15992232 1.6453792
0.19756112 -0.35716099 1.6090097
0.0086590657 -0.026522882 1.6742097
0.12147614 -0.22488452 1.62544
0.15944895 -0.29167068 1.6215808
0.23552808 -0.42559931 1.6022168
0.04716751 -0.094850913 1.6716341
0.084286727 -0.16021751 1.6453792
0.1963132 -0.35784844 1.6090097
0.0085622258 -0.026509516 1.66921
0.12069041 -0.2253072 1.62544
0.15842988 -0.29222548 1.6215808
0.23404102 -0.42641884 1.6022168
0.046836134 -0.095014982 1.6716341
0.083972178 -0.16098405 1.6503507
0.19506288 -0.35853153 1.6090097
0.0084696384 -0.026539244 1.66921
0.11990321 -0.2257271 1.62544
0.15740885 -0.29277667 1.6215808
0.23255113 -0.42723322 1.6022168
0.046504185 -0.095177889 1.6716341
0.083409727 -0.16127619 1.6503507
0.19440648 -0.36031675 1.6138492
0.0083769476 -0.026568646 1.66921
0.11911454 -0.22614425 1.62544
0.1563859 -0.29332435 1.6215808
0.23105839 -0.42804238 1.6022168
0.046171665 -0.095339641 1.6716341
0.082846254 -0.16156636 1.6503507
0.19314755 -0.36099318 1.6138492
0.0082841553 -0.026597725 1.66921
0.11832442 -0.22655867 1.62544
0.15536106 -0.29386845 1.6215808
0.23026682 -0.43016258 1.6069888
0.045838591 -0.095500231 1.6716341
0.082522042 -0.1623304 1.6553222
0.19188628 -0.36166519 1.6138492
0.0081912614 -0.026626479 1.66921
0.1171765 -0.22627985 1.6205007
0.15433431 -0.29440898 1.6215808
0.22876388 -0.43096375 1.6069888
0.04550495 -0.095659651 1.6716341
0.081954896 -0.16261749 1.6553222
0.19062266 -0.36233279 1.6138492
0.008098267 -0.02665491 1.66921
0.11638591 -0.22668751 1.6205007
0.15330569 -0.29494593 1.6215808
0.22725815 -0.43175966 1.6069888
0.045049943 -0.095555715 1.6666424
0.081386767 -0.16290255 1.6553222
0.18935671 -0.36299595 1.6138492
0.0080051748 -0.026683016 1.66921
0.11559393 -0.22709239 1.6205007
0.15227522 -0.29547927 1.6215808
0.22574964 -0.43255028 1.6069888
0.044716116 -0.095712386 1.6666424
0.080817625 -0.16318566 1.6553222
0.18808848 -0.36365473 1.6138492
0.0079119848 -0.026710797 1.66921
0.11480052 -0.22749451 1.6205007
0.15124288 -0.296009 1.6215808
0.22492394 -0.43466166 1.6117609
0.044381741 -0.095867887 1.6666424
0.080247514 -0.16346677 1.6553222
0.18681793 -0.36430907 1.6138492
0.0078186989 -0.026738252 1.66921
0.11435241 -0.22858921 1.62544
0.15020868 -0.29653516 1.6215808
0.2234053 -0.43544412 1.6117609
0.04404683 -0.096022226 1.6666424
0.079676419 -0.1637459 1.6553222
0.18554512 -0.36495897 1.6138492
0.0077224784 -0.026721843 1.6642101
0.11355378 -0.22898696 1.62544
0.14917266 -0.29705766 1.6215808
0.22188397 -0.4362213 1.6117609
0.043711383 -0.096175395 1.6666424
0.079104356 -0.16402301 1.6553222
0.18427005 -0.3656044 1.6138492
0.0076291547 -0.026748635 1.6642101
0.11275378 -0.22938196 1.62544
0.14813483 -0.29757655 1.6215808
0.2196883 -0.43566006 1.6069888
0.043491628 -0.096591651 1.6716341
0.078531317 -0.16429815 1.6553222
0.18299273 -0.36624542 1.6138492
0.0075357379 -0.026775103 1.6642101
0.11195241 -0.22977415 1.62544
0.14709519 -0.29809183 1.6215808
0.21816622 -0.43642429 1.6069888
0.043154195 -0.096742883 1.6716341
0.07795734 -0.16457127 1.6553222
0.1822705 -0.36800861 1.6186886
0.0074446118 -0.026844813 1.66921
0.11114966 -0.23016354 1.62544
0.14605376 -0.29860348 1.6215808
0.21664147 -0.43718317 1.6069888
0.042816237 -0.096892931 1.6716341
0.077382408 -0.1648424 1.6553222
0.18098481 -0.36864263 1.6186886
0.0073508611 -0.026870634 1.66921
0.11034556 -0.23055013 1.62544
0.14501056 -0.29911149 1.6215808
0.2151141 -0.43793672 1.6069888
0.042364303 -0.096776329 1.6666424
0.07680653 -0.1651115 1.6553222
0.17969689 -0.36927211 1.6186886
0.0072570196 -0.02689613 1.66921
0.10954011 -0.23093389 1.62544
0.14396557 -0.29961586 1.6215808
0.21358411 -0.43868494 1.6069888
0.042026233 -0.096923612 1.6666424
0.076229706 -0.1653786 1.6553222
0.17840679 -0.36989713 1.6186886
0.0071630911 -0.026921298 1.66921
0.10840374 -0.23061122 1.6205007
0.14291884 -0.30011654 1.6215808
0.21205151 -0.43942782 1.6069888
0.041576061 -0.096803471 1.6616508
0.075651966 -0.16564369 1.6553222
0.17711453 -0.37051764 1.6186886
0.0070690745 -0.026946139 1.66921
0.1075981 -0.2309882 1.6205007
0.14187036 -0.30061358 1.6215808
0.21051632 -0.44016534 1.6069888
0.041237898 -0.096948005 1.6616508
0.075073302 -0.16590674 1.6553222
0.17582011 -0.37113363 1.6186886
0.0069749719 -0.026970651 1.66921
0.10679114 -0.2313624 1.6205007
0.14082018 -0.30110699 1.6215808
0.20897858 -0.44089749 1.6069888
0.040899236 -0.097091369 1.6616508
0.074710444 -0.16665478 1.6602937
0.17505714 -0.37288317 1.623528
0.0068793143 -0.026951225 1.6642101
0.10598288 -0.23173375 1.6205007
0.13976824 -0.3015967 1.6215808
0.20743829 -0.44162428 1.6069888
0.040560074 -0.097233549 1.6616508
0.074128255 -0.16691455 1.6602937
0.17375447 -0.373492 1.623528
0.0067851953 -0.026975073 1.6642101
0.10517334 -0.2321023 1.6205007
0.13871463 -0.30208275 1.6215808
0.20589547 -0.44234571 1.6069888
0.040220417 -0.097374536 1.6616508
0.073758483 -0.16766082 1.6652652
0.17244968 -0.37409621 1.623528
0.0066921585 -0.027042212 1.66921
0.1043625 -0.23246799 1.6205007
0.13808027 -0.30349222 1.626476
0.20435014 -0.44306171 1.6069888
0.039880272 -0.097514331 1.6616508
0.17114279 -0.3746959 1.623528
0.0065977229 -0.027065407 1.66921
0.10355041 -0.23283087 1.6205007
0.13743776 -0.30490094 1.6313713
0.20342229 -0.4451302 1.6117609
0.039539643 -0.097652949 1.6616508
0.16983381 -0.37529102 1.623528
0.0065032067 -0.027088273 1.66921
0.10273704 -0.23319092 1.6205007
0.13678709 -0.3063089 1.6362665
0.20186725 -0.44583756 1.6117609
0.039198529 -0.097790375 1.6616508
0.16800912 -0.37473434 1.6186886
0.0064093196 -0.027154434 1.6742097
0.10192244 -0.23354812 1.6205007
0.13612823 -0.30771595 1.6411617
0.20030977 -0.44653949 1.6117609
0.038856938 -0.097926609 1.6616508
0.16670002 -0.3753185 1.6186886
0.0063144937 -0.027176641 1.6742097
0.10110657 -0.23390247 1.6205007
0.13505329 -0.30818924 1.6411617
0.19935551 -0.44860023 1.6165328
0.038514871 -0.098061644 1.6616508
0.070616402 -0.16843037 1.6602937
0.16488326 -0.37474734 1.6138492
0.006219591 -0.027198516 1.6742097
0.13397668 -0.30865878 1.6411617
0.1977884 -0.44929338 1.6165328
0.038172342 -0.098195493 1.6616508
0.06962195 -0.16769011 1.6503507
0.16357414 -0.37532058 1.6138492
0.0061243614 -0.02717643 1.66921
0.13289845 -0.30912459 1.6411617
0.19621888 -0.44998106 1.6165328
0.03782934 -0.098328136 1.6616508
0.068834856 -0.16743854 1.6453792
0.16226302 -0.3758893 1.6138492
0.0060294606 -0.027197644 1.66921
0.13181859 -0.30958661 1.6411617
0.19464694 -0.45066327 1.6165328
0.037586223 -0.098730274 1.6666424
0.068249963 -0.1676778 1.6453792
0.16094995 -0.37645337 1.6138492
0.0059344862 -0.027218524 1.66921
0.13073713 -0.31004485 1.6411617
0.19248606 -0.44996738 1.6117609
0.037241366 -0.098860875 1.6666424
0.067664243 -0.16791502 1.6453792
0.1596349 -0.37701294 1.6138492
0.0058392342 -0.027282706 1.6742097
0.12965408 -0.31049931 1.6411617
0.19091421 -0.45063654 1.6117609
0.036994502 -0.099261656 1.6716341
0.067077696 -0.16815019 1.6453792
0.15831791 -0.37756786 1.6138492
0.0057439641 -0.027302923 1.6742097
0.12895778 -0.31189126 1.646057
0.18934003 -0.4513002 1.6117609
0.036745295 -0.099661909 1.6766257
0.066490337 -0.16838332 1.6453792
0.15699899 -0.37811819 1.6138492
0.0056486246 -0.027322806 1.6742097
0.12786829 -0.31233951 1.646057
0.18833572 -0.45333701 1.6165328
0.036397189 -0.099789567 1.6766257
0.065902166 -0.16861437 1.6453792
0.15567815 -0.3786639 1.6138492
0.0055538779 -0.02729873 1.66921
0.094823509 -0.23735628 1.62544
0.12677725 -0.31278393 1.646057
0.18561739 -0.45123035 1.6069888
0.036048636 -0.099916004 1.6766257
0.06531319 -0.1688434 1.6453792
0.15435541 -0.37920505 1.6138492
0.0054585538 -0.027317951 1.66921
0.093994401 -0.23768584 1.62544
0.12530617 -0.31227928 1.6411617
0.035699643 -0.10004123 1.6766257
0.064723425 -0.16907035 1.6453792
0.15303081 -0.37974152 1.6138492
0.0053631626 -0.027336836 1.66921
0.093446396 -0.23873641 1.6303792
0.12421536 -0.31271482 1.6411617
0.18246271 -0.45251521 1.6069888
0.035256516 -0.099892177 1.6716341
0.064132862 -0.16929524 1.6453792
0.15170433 -0.3802734 1.6138492
0.0052677072 -0.027355392 1.66921
0.092892192 -0.23978604 1.6353185
0.12312303 -0.31314647 1.6411617
0.034907609 -0.10001464 1.6716341
0.063541517 -0.16951808 1.6453792
0.15037599 -0.3808006 1.6138492
0.0051721865 -0.027373614 1.66921
0.092331804 -0.2408347 1.6402577
0.12202919 -0.31357437 1.6411617
0.03446649 -0.099862166 1.6666424
0.062949404 -0.16973884 1.6453792
0.14904584 -0.38132322 1.6138492
0.0050751795 -0.027435109 1.6742097
0.091490574 -0.24115555 1.6402577
0.12093387 -0.3139984 1.6411617
0.034117695 -0.099981867 1.6666424
0.06217429 -0.1694566 1.6404077
0.14771387 -0.38184115 1.6138492
0.0049778065 -0.027496263 1.6792096
0.090920337 -0.24220124 1.6451969
0.11983708 -0.31441864 1.6411617
0.033768483 -0.10010035 1.6666424
0.061582394 -0.16967261 1.6404077
0.14638008 -0.38235444 1.6138492
0.0048817964 -0.027513471 1.6792096
0.090074353 -0.24251713 1.6451969
0.11909741 -0.31578803 1.646057
0.033418864 -0.10021763 1.6666424
0.060989756 -0.16988653 1.6404077
0.14504452 -0.38286307 1.6138492
0.004783846 -0.027573936 1.6842093
0.089227252 -0.24283005 1.6451969
0.11799438 -0.31620184 1.646057
0.033068836 -0.10033366 1.6666424
0.06039637 -0.17009838 1.6404077
0.14414781 -0.38454425 1.6186886
0.0046875658 -0.027590467 1.6842093
0.088379078 -0.24314004 1.6451969
0.11724183 -0.31756723 1.6509522
0.032718401 -0.10044848 1.6666424
0.059627034 -0.16980475 1.6354362
0.14280464 -0.38504508 1.6186886
0.0045912284 -0.027606662 1.6842093
0.087529816 -0.24344707 1.6451969
0.032453615 -0.10083766 1.6716341
0.059033938 -0.17001185 1.6354362
0.1414597 -0.38554123 1.6186886
0.0044971723 -0.02757895 1.6792096
0.086679503 -0.24375112 1.6451969
0.03210143 -0.10095032 1.6716341
0.058440126 -0.17021689 1.6354362
0.14011304 -0.38603267 1.6186886
0.0044008764 -0.027594479 1.6792096
0.086084925 -0.24478552 1.6501362
0.03174885 -0.10106176 1.6716341
0.057845604 -0.17041984 1.6354362
0.13876468 -0.3865194 1.6186886
0.0043045268 -0.027609672 1.6792096
0.085229948 -0.24508452 1.6501362
0.031395886 -0.10117197 1.6716341
0.057250377 -0.17062071 1.6354362
0.13741463 -0.38700143 1.6186886
0.0042081247 -0.027624529 1.6792096
0.084122233 -0.24464543 1.6451969
0.11134647 -0.31860358 1.646057
0.031042539 -0.10128094 1.6716341
0.05665445 -0.17081952 1.6354362
0.13606292 -0.38747871 1.6186886
0.0041116718 -0.02763905 1.6792096
0.083267756 -0.2449376 1.6451969
0.10956999 -0.31706506 1.6362665
0.030688815 -0.10138869 1.6716341
0.056222465 -0.17152321 1.6404077
0.13470954 -0.38795131 1.6186886
0.0040151682 -0.027653234 1.6792096
0.082412258 -0.24522677 1.6451969
0.10780562 -0.31551805 1.626476
0.030334713 -0.10149519 1.6716341
0.055623394 -0.17171843 1.6404077
0.13335451 -0.38841915 1.6186886
0.0039186161 -0.027667083 1.6792096
0.081555754 -0.24551293 1.6451969
0.10702871 -0.31685734 1.6313713
0.029900961 -0.10132287 1.6666424
0.055023648 -0.17191155 1.6404077
0.13240129 -0.39007276 1.623528
0.0038220161 -0.027680591 1.6792096
0.080698252 -0.24579613 1.6451969
0.10592201 -0.31722903 1.6313713
0.029547097 -0.10142662 1.6666424
0.054423228 -0.17210257 1.6404077
0.13103887 -0.39053258 1.623528
0.0037253697 -0.027693763 1.6792096
0.079839773 -0.24607632 1.6451969
0.10481403 -0.31759685 1.6313713
0.029115526 -0.10125101 1.6616508
0.053822145 -0.17229149 1.6404077
0.13006994 -0.39218086 1.6283674
0.0036286775 -0.027706601 1.6792096
0.078980319 -0.24635351 1.6451969
0.10401976 -0.31892905 1.6362665
0.028761918 -0.10135203 1.6616508
0.053220406 -0.1724783 1.6404077
0.12909111 -0.39382708 1.6332068
0.0035319412 -0.027719097 1.6792096
0.078119904 -0.2466277 1.6451969
0.10290585 -0.31929016 1.6362665
0.028407957 -0.10145181 1.6616508
0.052618023 -0.17266303 1.6404077
0.12848912 -0.39666733 1.6428857
0.0034351619 -0.027731257 1.6792096
0.077258535 -0.24689889 1.6451969
0.10179069 -0.31964743 1.6362665
0.028053651 -0.10155036 1.6616508
0.052014992 -0.17284565 1.6404077
0.0033425002 -0.027699646 1.6742097
0.076396227 -0.24716707 1.6451969
0.10036947 -0.31902933 1.6313713
0.027699005 -0.10164766 1.6616508
0.05156175 -0.17353757 1.6453792
0.0032457898 -0.027711144 1.6742097
0.075532988 -0.24743223 1.6451969
0.099255234 -0.31937772 1.6313713
0.027416496 -0.10202317 1.6666424
0.050955676 -0.1737165 1.6453792
0.00314904 -0.027722307 1.6742097
0.074668825 -0.24769439 1.6451969
0.0981398 -0.31972224 1.6313713
0.0270602 -0.10211825 1.6666424
0.050348982 -0.17389332 1.6453792
0.0030522521 -0.027733129 1.6742097
0.07380376 -0.24795353 1.6451969
0.097023159 -0.32006288 1.6313713
0.026703577 -0.10221209 1.6666424
0.049886726 -0.17458093 1.6503507
0.0029554269 -0.027743613 1.6742097
0.072937787 -0.24820964 1.6451969
0.095905341 -0.32039961 1.6313713
0.026416177 -0.10258487 1.6716341
0.049277019 -0.17475401 1.6503507
0.0028585657 -0.027753763 1.6742097
0.072070941 -0.24846272 1.6451969
0.094786353 -0.32073241 1.6313713
0.026057927 -0.10267645 1.6716341
0.048949644 -0.17595284 1.6602937
0.0027566017 -0.027806908 1.6792096
0.071203202 -0.24871278 1.6451969
0.093666211 -0.32106134 1.6313713
0.02569936 -0.10276678 1.6716341
0.048335157 -0.17612264 1.6602937
0.0026595208 -0.027816359 1.6792096
0.070544846 -0.24970782 1.6501362
0.092544928 -0.32138634 1.6313713
0.025340481 -0.10285587 1.6716341
0.1163151 -0.40171507 1.6477252
0.0025624072 -0.027825475 1.6792096
0.069672778 -0.24995254 1.6501362
0.091422521 -0.32170743 1.6313713
0.024981294 -0.1029437 1.6716341
0.047104422 -0.17645578 1.6602937
0.11491215 -0.40211865 1.6477252
0.0024652621 -0.02783425 1.6792096
0.069004886 -0.25094369 1.6550754
0.090298995 -0.32202458 1.6313713
0.0246218 -0.10303026 1.6716341
0.046353918 -0.17610328 1.6553222
0.11350779 -0.40251735 1.6477252
0.0023624152 -0.027885947 1.6842093
0.068128511 -0.25118303 1.6550754
0.089174367 -0.32233784 1.6313713
0.024198342 -0.102834 1.6666424
0.11210205 -0.4029111 1.6477252
0.0022650606 -0.027894024 1.6842093
0.067251302 -0.25141931 1.6550754
0.088048652 -0.32264715 1.6313713
0.023839235 -0.10291784 1.6666424
0.11069495 -0.40329996 1.6477252
0.0021676784 -0.027901761 1.6842093
0.066373274 -0.25165254 1.6550754
0.08718574 -0.32393596 1.6362665
0.023479842 -0.10300042 1.6666424
0.1092865 -0.4036839 1.6477252
0.0020702702 -0.027909158 1.6842093
0.065494433 -0.25188267 1.6550754
0.086054459 -0.3242383 1.6362665
0.023120159 -0.10308176 1.6666424
0.043763552 -0.17621562 1.6503507
0.0019791119 -0.027873036 1.6792096
0.064806722 -0.25286269 1.6600147
0.085179128 -0.32552192 1.6411617
0.022760198 -0.10316183 1.6666424
0.043398682 -0.17740355 1.6602937
0.0018818057 -0.027879775 1.6792096
0.063923672 -0.25308737 1.6600147
0.084295899 -0.32680342 1.646057
0.022399954 -0.10324066 1.6666424
0.042779163 -0.17755395 1.6602937
0.0017844751 -0.027886173 1.6792096
0.063039839 -0.25330898 1.6600147
0.083154626 -0.32709566 1.646057
0.022039443 -0.10331822 1.6666424
0.042159125 -0.17770222 1.6602937
0.0016938511 -0.027849121 1.6742097
0.062155243 -0.25352746 1.6600147
0.082259014 -0.32837182 1.6509522
0.02167866 -0.10339452 1.6666424
0.041418754 -0.17732888 1.6553222
0.0015966294 -0.027854864 1.6742097
0.061269891 -0.2537429 1.6600147
0.08111228 -0.32865694 1.6509522
0.021317614 -0.10346957 1.6666424
0.040799506 -0.1774724 1.6553222
0.10080841 -0.40588409 1.6477252
0.0014993881 -0.027860267 1.6742097
0.060383789 -0.25395522 1.6600147
0.079964563 -0.32893807 1.6509522
0.020956308 -0.10354335 1.6666424
0.040063567 -0.17709348 1.6503507
0.099390998 -0.40623349 1.6477252
0.0014021285 -0.027865332 1.6742097
0.059496954 -0.25416446 1.6600147
0.078815863 -0.3292152 1.6509522
0.020648545 -0.1038995 1.6716341
0.039445158 -0.17723225 1.6503507
0.097678497 -0.40535578 1.6428857
0.0013048516 -0.027870057 1.6742097
0.058609392 -0.25437057 1.6600147
0.077666208 -0.32948831 1.6509522
0.020285742 -0.10397095 1.6716341
0.038938817 -0.1778899 1.6553222
0.096262954 -0.40569431 1.6428857
0.0012075591 -0.027874442 1.6742097
0.057721112 -0.25457364 1.6600147
0.076515608 -0.32975739 1.6509522
0.019922692 -0.10404113 1.6716341
0.038317624 -0.17802474 1.6553222
0.094846226 -0.40602785 1.6428857
0.0011102518 -0.027878486 1.6742097
0.056832138 -0.25477356 1.6600147
0.075364068 -0.33002251 1.6509522
0.0195594 -0.10411003 1.6716341
0.03769597 -0.1781574 1.6553222
0.093428351 -0.40635645 1.6428857
0.0010129309 -0.027882192 1.6742097
0.055942461 -0.2549704 1.6600147
0.074434079 -0.33127719 1.6558474
0.019195868 -0.10417768 1.6716341
0.037180949 -0.17881009 1.6602937
0.092009328 -0.40668008 1.6428857
0.00091559766 -0.027885558 1.6742097
0.055214982 -0.25592384 1.6649539
0.073277257 -0.33153498 1.6558474
0.018832104 -0.10424405 1.6716341
0.036556561 -0.17893878 1.6602937
