# .PCD v0.7 - Point Cloud Data file format
VERSION 0.7
FIELDS x y z
SIZE 4 4 4
TYPE F F F
COUNT 1 1 1
WIDTH 1387
HEIGHT 1
VIEWPOINT 0 0 0 1 0 0 0
POINTS 1387
DATA ascii
0.11038879 -0.07749851 0.67190677
0.16651432 -0.11577935 0.69553995
0.2161932 -0.14949025 0.67879057
0.28623968 -0.19727115 0.70435202
0.038385652 -0.028667912 0.6683107
0.062924556 -0.045452666 0.68090743
0.13869414 -0.097152241 0.68951923
0.32544461 -0.22473845 0.71709633
0.014797201 -0.012583382 0.6692481
0.087245986 -0.062271595 0.68204165
0.1101176 -0.07788337 0.67190677
0.16488731 -0.11550242 0.690768
0.21567006 -0.150244 0.67879057
0.28358245 -0.19690259 0.69996291
0.038285349 -0.028801726 0.6683107
0.062765516 -0.045672037 0.68090743
0.13835415 -0.097635791 0.68951923
0.32465816 -0.22587308 0.71709633
0.014753187 -0.012634957 0.6692481
0.087028086 -0.062575758 0.68204165
0.10984506 -0.078267269 0.67190677
0.16448313 -0.11607729 0.690768
0.21514431 -0.1509959 0.67879057
0.28289342 -0.19789127 0.69996291
0.038184579 -0.028935194 0.6683107
0.062605709 -0.045890849 0.68090743
0.13903609 -0.098847717 0.69435865
0.32173237 -0.22550759 0.71283042
0.014708993 -0.012686378 0.6692481
0.087436937 -0.063336968 0.6869809
0.1095712 -0.078650229 0.67190677
0.16407694 -0.11665073 0.690768
0.21461591 -0.15174598 0.67879057
0.2822009 -0.19887756 0.69996291
0.037857287 -0.028888751 0.66331905
0.062445138 -0.046109103 0.68090743
0.13869019 -0.099332437 0.69435865
0.32094327 -0.22662927 0.71283042
0.014664619 -0.012737646 0.6692481
0.10929598 -0.079032227 0.67190677
0.16366875 -0.11722276 0.690768
0.21408492 -0.15249421 0.67879057
0.27955249 -0.19847435 0.69557387
0.037756216 -0.029020721 0.66331905
0.1383426 -0.099815942 0.69435865
0.31802541 -0.22623593 0.70856452
0.014620068 -0.012788756 0.6692481
0.10901944 -0.07941325 0.67190677
0.16325857 -0.11779336 0.690768
0.21355131 -0.15324058 0.67879057
0.27885801 -0.19944897 0.69557387
0.037654683 -0.029152337 0.66331905
0.13697746 -0.099557996 0.68951923
0.31723377 -0.22734466 0.70856452
0.014597634 -0.012877218 0.67424786
0.10792182 -0.079189382 0.66701156
0.1628464 -0.11836251 0.690768
0.21459785 -0.15513037 0.68339312
0.2781601 -0.20042115 0.69557387
0.037552692 -0.029283598 0.66331905
0.1366291 -0.10003553 0.68951923
0.25351992 -0.18351622 0.71093631
0.31643823 -0.22845064 0.70856452
0.014552595 -0.012928096 0.67424786
0.10764474 -0.079565622 0.66701156
0.16243225 -0.11893024 0.690768
0.21405503 -0.1558785 0.68339312
0.27745879 -0.20139089 0.69557387
0.037450247 -0.029414501 0.66331905
0.13526841 -0.099764518 0.68467981
0.25111932 -0.18311681 0.70643508
0.31353003 -0.2280194 0.70429856
0.014507379 -0.012978814 0.67424786
0.08631824 -0.064853303 0.6869809
0.10736635 -0.079940885 0.66701156
0.16201612 -0.11949651 0.690768
0.21350962 -0.15662476 0.68339312
0.27482122 -0.20094404 0.69118476
0.037347339 -0.02954505 0.66331905
0.13491933 -0.10023609 0.68467981
0.24872458 -0.18270287 0.70193392
0.31273219 -0.22911242 0.70429856
0.086091332 -0.065154217 0.6869809
0.10708665 -0.08031518 0.66701156
0.16040058 -0.11917008 0.685996
0.21296158 -0.15736909 0.68339312
0.27411813 -0.20190211 0.69118476
0.037243981 -0.029675234 0.66331905
0.061465807 -0.047406744 0.68090743
0.13456863 -0.10070643 0.68467981
0.24808532 -0.18356995 0.70193392
0.30983239 -0.22865355 0.70003265
0.085863374 -0.065454334 0.6869809
0.10680564 -0.080688491 0.66701156
0.15998362 -0.11972926 0.685996
0.21397758 -0.15927878 0.68799561
0.27341169 -0.20285775 0.69118476
0.037140168 -0.029805062 0.66331905
0.061299957 -0.047621012 0.68090743
0.13321348 -0.10041769 0.67984033
0.24569803 -0.18313321 0.69743264
0.30903241 -0.22973366 0.70003265
0.014370671 -0.01313002 0.67424786
0.10652333 -0.081060827 0.66701156
0.15837352 -0.11938739 0.68122405
0.21342027 -0.16002475 0.68799561
0.27270192 -0.20381087 0.69118476
0.037035905 -0.029934522 0.66331905
0.060715657 -0.04750352 0.67593592
0.13286214 -0.10088208 0.67984033
0.24505728 -0.18398973 0.69743264
0.30822858 -0.230811 0.70003265
0.014324753 -0.013180105 0.67424786
0.10623974 -0.081432171 0.66701156
0.15795583 -0.1199395 0.68122405
0.21286039 -0.16076873 0.68799561
0.27198881 -0.20476155 0.69118476
0.036710881 -0.029877052 0.6583274
0.060549468 -0.047715165 0.67593592
0.13250919 -0.10134523 0.67984033
0.24441354 -0.18484403 0.69743264
0.307421 -0.23188551 0.70003265
0.014278658 -0.013230026 0.67424786
0.10595484 -0.081802517 0.66701156
0.1563513 -0.11958225 0.67645204
0.21229792 -0.16151078 0.68799561
0.27127242 -0.20570971 0.69118476
0.036606368 -0.030005014 0.6583274
0.060382541 -0.047926232 0.67593592
0.13215461 -0.10180716 0.67984033
0.24376684 -0.18569607 0.69743264
0.30660972 -0.2329572 0.70003265
0.014211149 -0.013241674 0.6692481
0.10566864 -0.082171865 0.66701156
0.15593295 -0.12012729 0.67645204
0.2101827 -0.16106181 0.68339312
0.27055269 -0.20665538 0.69118476
0.036720403 -0.030320711 0.66331905
0.060214885 -0.048136719 0.67593592
0.13179843 -0.10226785 0.67984033
0.24311715 -0.18654585 0.69743264
0.3037239 -0.23244055 0.69576669
0.014164841 -0.013291199 0.6692481
0.10538117 -0.082540214 0.66701156
0.15551266 -0.12067087 0.67645204
0.20961921 -0.1617945 0.68339312
0.26982969 -0.20759854 0.69118476
0.036614344 -0.030448709 0.66331905
0.060046487 -0.048346613 0.67593592
0.13144065 -0.10272729 0.67984033
0.18611121 -0.14448947 0.69494408
0.24074252 -0.18606147 0.69293141
0.30291069 -0.23349933 0.69576669
0.014097386 -0.013302301 0.66424829
0.10509241 -0.082907565 0.66701156
0.1550905 -0.12121297 0.67645204
0.20905316 -0.16252522 0.68339312
0.26910338 -0.20853914 0.69118476
0.036507834 -0.03057633 0.66331905
0.059877358 -0.048555918 0.67593592
0.13108127 -0.10318547 0.67984033
0.18560572 -0.14513822 0.69494408
0.24009159 -0.18690069 0.69293141
0.30209377 -0.23455524 0.69576669
0.014050866 -0.013351429 0.66424829
0.10480237 -0.083273903 0.66701156
0.15466644 -0.1217536 0.67645204
0.20848455 -0.16325398 0.68339312
0.26648626 -0.20800303 0.68679571
0.036400881 -0.030703578 0.66331905
0.0597075 -0.048764631 0.67593592
0.12973629 -0.10286027 0.67500091
0.2394377 -0.18773763 0.69293141
0.29921916 -0.23400123 0.69150078
0.014004176 -0.013400394 0.66424829
0.10451105 -0.083639219 0.66701156
0.1542405 -0.12229275 0.67645204
0.20791343 -0.16398072 0.68339312
0.26575857 -0.20893198 0.68679571
0.036293484 -0.030830458 0.66331905
0.059536919 -0.048972752 0.67593592
0.12937644 -0.1033125 0.67500091
0.23707297 -0.18722247 0.68843019
0.29840049 -0.23504427 0.69150078
0.013977886 -0.013487676 0.6692481
0.10421845 -0.084003523 0.66701156
0.15381268 -0.12283041 0.67645204
0.20733976 -0.16470549 0.68339312
0.26502767 -0.20985839 0.68679571
0.036185645 -0.030956954 0.66331905
0.059365612 -0.04918028 0.67593592
0.12901503 -0.10376349 0.67500091
0.23641801 -0.18804887 0.68843019
0.29553548 -0.23446305 0.68723482
0.013930719 -0.013536385 0.6692481
0.10392459 -0.084366806 0.66701156
0.15338297 -0.12336656 0.67645204
0.20676357 -0.16542822 0.68339312
0.26242149 -0.20928836 0.68240654
0.036077365 -0.031083077 0.66331905
0.059193578 -0.049387202 0.67593592
0.12865204 -0.10421319 0.67500091
0.23576015 -0.18887298 0.68843019
0.29471526 -0.23549324 0.68723482
0.013903687 -0.013623552 0.67424786
0.082689621 -0.068205878 0.68204165
0.10284244 -0.084083043 0.66211635
0.15295142 -0.12390122 0.67645204
0.20466422 -0.16492239 0.67879057
0.26168934 -0.2102031 0.68240654
0.035968643 -0.031208824 0.66331905
0.059020825 -0.049593523 0.67593592
0.12731452 -0.10386583 0.67016149
0.23509943 -0.18969478 0.68843019
0.29389143 -0.23652054 0.68723482
0.013856047 -0.013672002 0.67424786
0.082451031 -0.068494096 0.68204165
0.1025483 -0.084441513 0.66211635
0.15251799 -0.12443436 0.67645204
0.20408729 -0.16563579 0.67879057
0.25909248 -0.20960839 0.6780175
0.035859484 -0.031334184 0.66331905
0.058847349 -0.049799245 0.67593592
0.12695119 -0.10430961 0.67016149
0.23443584 -0.19051427 0.68843019
0.29103836 -0.23590231 0.68296891
0.082211442 -0.068781488 0.68204165
0.10225293 -0.084798962 0.66211635
0.1520827 -0.12496599 0.67645204
0.20350787 -0.16634719 0.67879057
0.25835925 -0.21051154 0.6780175
0.035962872 -0.031654056 0.6683107
0.058673158 -0.050004356 0.67593592
0.1265863 -0.10475212 0.67016149
0.23376939 -0.19133145 0.68843019
0.29021314 -0.23691678 0.68296891
0.1019563 -0.085155375 0.66211635
0.15164556 -0.12549609 0.67645204
0.20292597 -0.16705655 0.67879057
0.25762284 -0.21141209 0.6780175
0.035852157 -0.031779397 0.6683107
0.058498252 -0.050208859 0.67593592
0.12621987 -0.10519336 0.67016149
0.23310009 -0.19214629 0.68843019
0.28938439 -0.23792838 0.68296891
0.10167335 -0.085493006 0.66211635
0.15122856 -0.12599829 0.67645204
0.20240013 -0.16769323 0.67879057
0.25695741 -0.2122204 0.6780175
0.035768837 -0.031873152 0.6683107
0.058366604 -0.050361838 0.67593592
0.12596247 -0.10550145 0.67016149
0.17846154 -0.14849782 0.68555856
0.28683341 -0.23692299 0.67870301
0.013687983 -0.01384026 0.67424786
0.10150903 -0.085688047 0.66211635
0.1509864 -0.12628838 0.67645204
0.20204848 -0.16811678 0.67879057
0.2546694 -0.21122858 0.67362839
0.035685271 -0.031966683 0.6683107
0.057834156 -0.05016258 0.67096442
0.12662771 -0.10666378 0.67500091
0.17672344 -0.14788726 0.68086576
0.28612921 -0.237773 0.67870301
0.013639588 -0.013887957 0.67424786
0.10120931 -0.086041853 0.66211635
0.14940383 -0.12585196 0.67168003
0.1999636 -0.16756551 0.67418808
0.25393051 -0.21211623 0.67362839
0.035573468 -0.032091051 0.6683107
0.057658702 -0.050364152 0.67096442
0.12625462 -0.10710514 0.67500091
0.1748873 -0.14739032 0.67617303
0.28329781 -0.237096 0.67443705
0.013571605 -0.01389641 0.6692481
0.10013618 -0.085730918 0.65722114
0.14896362 -0.12637271 0.67168003
0.19937749 -0.1682625 0.67418808
0.25318852 -0.21300133 0.67362839
0.035461232 -0.032215033 0.6683107
0.057482548 -0.050565109 0.67096442
0.12683465 -0.10836287 0.67984033
0.17437175 -0.1479999 0.67617303
0.23073524 -0.19497973 0.68843019
0.28246847 -0.23808345 0.67443705
0.013523015 -0.0139437 0.6692481
0.099836312 -0.08607994 0.65722114
0.14738755 -0.12592131 0.66690803
0.19878891 -0.16895743 0.67418808
0.25244346 -0.21388382 0.67362839
0.035139367 -0.032139678 0.66331905
0.057305694 -0.050765455 0.67096442
0.12645561 -0.10880496 0.67984033
0.17385407 -0.14860767 0.67617303
0.28163573 -0.23906799 0.67443705
0.01347426 -0.013990819 0.6692481
0.099535227 -0.086427905 0.65722114
0.1469471 -0.12643501 0.66690803
0.19819793 -0.1696503 0.67418808
0.25169533 -0.21476372 0.67362839
0.03502696 -0.032262139 0.66331905
0.057128139 -0.050965182 0.67096442
0.12512611 -0.10842139 0.67500091
0.17202717 -0.14808695 0.67148024
0.22771603 -0.19516854 0.68392903
0.28079948 -0.24004963 0.67443705
0.013425341 -0.014037767 0.6692481
0.079801731 -0.070394091 0.67710245
0.099232927 -0.086774826 0.65722114
0.14650488 -0.12694719 0.66690803
0.1961254 -0.16906479 0.66958553
0.24912816 -0.21407956 0.66923934
0.034706328 -0.032183811 0.6583274
0.056949887 -0.051164284 0.67096442
0.12474688 -0.10885749 0.67500091
0.17150921 -0.14868654 0.67148024
0.22703338 -0.19596222 0.68392903
0.27995983 -0.24102834 0.67443705
0.013376257 -0.014084546 0.6692481
0.078397058 -0.069636434 0.66722393
0.098929428 -0.087120682 0.65722114
0.14718466 -0.12844026 0.67168003
0.19553408 -0.16974837 0.66958553
0.24837938 -0.21494786 0.66923934
0.034593772 -0.032304764 0.6583274
0.056770947 -0.051362764 0.67096442
0.12342298 -0.10846135 0.67016149
0.17098913 -0.14928432 0.67148024
0.2247055 -0.19532473 0.6794278
0.2771467 -0.24029514 0.67017114
0.013327013 -0.014131151 0.6692481
0.077576078 -0.069389753 0.66228467
0.098624714 -0.08746548 0.65722114
0.14673543 -0.12895323 0.67168003
0.19347017 -0.16914329 0.66498303
0.24762756 -0.21581356 0.66923934
0.034480795 -0.032425325 0.6583274
0.05659131 -0.051560622 0.67096442
0.12210339 -0.10805732 0.66532207
0.17176224 -0.15102056 0.67617303
0.22402233 -0.19610792 0.6794278
0.27630621 -0.24126111 0.67017114
0.013277604 -0.014177585 0.6692481
0.076757789 -0.069138192 0.65734541
0.098318808 -0.087809213 0.65722114
0.14628439 -0.12946466 0.67168003
0.19287856 -0.1698176 0.66498303
0.24687269 -0.21667664 0.66923934
0.034573101 -0.032748051 0.66331905
0.056410983 -0.051757846 0.67096442
0.12172545 -0.10848289 0.66532207
0.17123403 -0.1516192 0.67617303
0.22333641 -0.1968887 0.6794278
0.27350423 -0.24050143 0.66590512
0.013228035 -0.014223846 0.6692481
0.076515988 -0.069405705 0.65734541
0.098011687 -0.088151872 0.65722114
0.14583158 -0.1299745 0.67168003
0.19082345 -0.169193 0.66038048
0.24432082 -0.21595037 0.66485029
0.034458578 -0.032868531 0.66331905
0.056229971 -0.051954444 0.67096442
0.12134603 -0.10890713 0.66532207
0.17070374 -0.152216 0.67617303
0.22264777 -0.19766711 0.6794278
0.27266306 -0.24145468 0.66590512
0.013178304 -0.014269934 0.6692481
0.076273248 -0.069672368 0.65734541
0.096950047 -0.087808453 0.65232587
0.14537701 -0.13048276 0.67168003
0.19023168 -0.16985807 0.66038048
0.24356554 -0.21680191 0.66485029
0.034343634 -0.032988615 0.66331905
0.056048274 -0.052150406 0.67096442
0.12003367 -0.10848603 0.66048265
0.17017137 -0.15281093 0.67617303
0.2203341 -0.1969915 0.67492658
0.27181855 -0.242405 0.66590512
0.013128411 -0.014315848 0.6692481
0.076029569 -0.069938198 0.65734541
0.096642949 -0.088146336 0.65232587
0.14492065 -0.13098942 0.67168003
0.18963762 -0.17052107 0.66038048
0.24102437 -0.21605165 0.66046119
0.034228273 -0.033108294 0.66331905
0.055865899 -0.05234573 0.67096442
0.11965425 -0.10890436 0.66048265
0.16963691 -0.15340401 0.67617303
0.21964511 -0.19775942 0.67492658
0.27097073 -0.24335232 0.66590512
0.01307836 -0.014361587 0.6692481
0.075784981 -0.070203163 0.65734541
0.096334673 -0.088483147 0.65232587
0.14335954 -0.13048872 0.66690803
0.18904123 -0.17118199 0.66038048
0.24026875 -0.21689166 0.66046119
0.034112494 -0.03322757 0.66331905
0.056068152 -0.052908767 0.67593592
0.11834782 -0.10847088 0.65564322
0.1691004 -0.15399523 0.67617303
0.21734129 -0.19706206 0.67042536
0.26818579 -0.24254689 0.66163921
0.013028149 -0.014407151 0.6692481
0.07553947 -0.070467271 0.65734541
0.096025221 -0.08881887 0.65232587
0.14290318 -0.13098836 0.66690803
0.18844254 -0.17184083 0.66038048
0.23951019 -0.21772905 0.66046119
0.033996303 -0.033346444 0.66331905
0.055883124 -0.053104158 0.67593592
0.11796847 -0.10888333 0.65564322
0.16856183 -0.15458456 0.67617303
0.21504502 -0.19635105 0.66592419
0.2673375 -0.24348156 0.66163921
0.01297778 -0.014452541 0.6692481
0.075293027 -0.070730522 0.65734541
0.095714599 -0.089153528 0.65232587
0.14134912 -0.13047294 0.66213602
0.18784156 -0.17249757 0.66038048
0.23698264 -0.21694604 0.65607214
0.033879694 -0.033464909 0.66331905
0.11758767 -0.10929446 0.65564322
0.21435833 -0.19710051 0.66592419
0.26648599 -0.24441326 0.66163921
0.012927252 -0.014497753 0.6692481
0.075045675 -0.070992917 0.65734541
0.094661541 -0.088789046 0.64743066
0.14089282 -0.13096555 0.66213602
0.18723828 -0.17315221 0.66038048
0.23622392 -0.21777195 0.65607214
0.033762671 -0.03358297 0.66331905
0.055129588 -0.053120639 0.67096442
0.11720546 -0.10970424 0.65564322
0.21207224 -0.19636789 0.66142297
0.2656312 -0.24534197 0.66163921
0.012876566 -0.01454279 0.6692481
0.074797407 -0.07125444 0.65734541
0.094351038 -0.089118935 0.64743066
0.13934596 -0.13043548 0.65736407
0.18663274 -0.17380473 0.66038048
0.23546234 -0.21859519 0.65607214
0.033645239 -0.033700619 0.66331905
0.054943826 -0.053312752 0.67096442
0.1168218 -0.1101127 0.65564322
0.2113855 -0.19710696 0.66142297
0.2628639 -0.24449103 0.65737331
0.012825725 -0.014587649 0.6692481
0.073989302 -0.070975356 0.65240616
0.094039381 -0.089447744 0.64743066
0.1388898 -0.1309211 0.65736407
0.18602489 -0.17445514 0.66038048
0.23469786 -0.21941577 0.65607214
0.033527397 -0.033817858 0.66331905
0.054757394 -0.053504217 0.67096442
0.11643673 -0.11051981 0.65564322
0.20910977 -0.19635285 0.65692174
0.26200888 -0.2454071 0.65737331
0.012791935 -0.014672425 0.67424786
0.073741101 -0.071233191 0.65240616
0.093726583 -0.089775458 0.64743066
0.13843195 -0.13140512 0.65736407
0.18541481 -0.17510343 0.66038048
0.23218724 -0.21859147 0.65168303
0.033210643 -0.033725068 0.6583274
0.054570299 -0.053695034 0.67096442
0.11605023 -0.11092559 0.65564322
0.20842311 -0.1970816 0.65692174
0.25925386 -0.24453025 0.65310735
0.012740641 -0.014716988 0.67424786
0.073492005 -0.071490161 0.65240616
0.09341263 -0.090102077 0.64743066
0.13797241 -0.13188753 0.65736407
0.18338743 -0.17440253 0.65577799
0.23142278 -0.21940061 0.65168303
0.033092722 -0.033840787 0.6583274
0.054382533 -0.053885192 0.67096442
0.11566232 -0.11133 0.65564322
0.20773388 -0.19780792 0.65692174
0.25839871 -0.24543372 0.65310735
0.012689192 -0.014761372 0.67424786
0.072688766 -0.071200684 0.6474669
0.093097553 -0.090427592 0.64743066
0.13751122 -0.13236834 0.65736407
0.18277754 -0.17504163 0.65577799
0.22892374 -0.21855272 0.64729398
0.032974392 -0.033956096 0.6583274
0.054194108 -0.05407469 0.67096442
0.11437157 -0.11085705 0.6508038
0.20704214 -0.19853185 0.65692174
0.25565615 -0.24453104 0.64884144
0.012637587 -0.014805576 0.67424786
0.07243979 -0.071453981 0.6474669
0.092781335 -0.090752013 0.64743066
0.13704832 -0.13284755 0.65736407
0.18075982 -0.17432168 0.65117538
0.22815946 -0.2193505 0.64729398
0.032855663 -0.034070991 0.6583274
0.053631462 -0.053883269 0.66599292
0.11398391 -0.11125562 0.6508038
0.20634788 -0.19925335 0.65692174
0.25480101 -0.24542195 0.64884144
0.012585829 -0.014849599 0.67424786
0.07218992 -0.071706407 0.6474669
0.092463978 -0.091075324 0.64743066
0.13658376 -0.13332511 0.65736407
0.17874938 -0.17358981 0.64657289
0.22567219 -0.21847917 0.64290488
0.032736532 -0.034185469 0.6583274
0.053443052 -0.054070149 0.66599292
0.11359485 -0.11165282 0.6508038
0.2056511 -0.19997242 0.65692174
0.25207117 -0.24449363 0.64457548
0.012517409 -0.014853051 0.6692481
0.071939178 -0.071957968 0.6474669
0.09214551 -0.091397539 0.64743066
0.13505396 -0.13275371 0.65259206
0.17674629 -0.17284606 0.64197034
0.22490816 -0.21926558 0.64290488
0.032617003 -0.034299538 0.6583274
0.053253986 -0.054256372 0.66599292
0.11320443 -0.11204866 0.6508038
0.16060509 -0.15795146 0.66678751
0.20495181 -0.20068905 0.65692174
0.2512162 -0.24537203 0.64457548
0.012465487 -0.014896655 0.6692481
0.071687557 -0.072208636 0.6474669
0.091825902 -0.091718629 0.64743066
0.13458975 -0.13322432 0.65259206
0.17475058 -0.17209043 0.63736784
0.22414142 -0.22004932 0.64290488
0.032497074 -0.034413181 0.6583274
0.052694716 -0.054057773 0.66102141
0.11281262 -0.11244313 0.6508038
0.16005276 -0.1585111 0.66678751
0.20425002 -0.20140326 0.65692174
0.25035813 -0.24624744 0.64457548
0.012429637 -0.014980581 0.67424786
0.071435072 -0.072458431 0.6474669
0.090788737 -0.091315106 0.64253545
0.13412388 -0.13369332 0.65259206
0.17414881 -0.17269938 0.63736784
0.22337194 -0.22083038 0.64290488
0.032376751 -0.034526408 0.6583274
0.052505698 -0.054241382 0.66102141
0.11241943 -0.11283623 0.6508038
0.15949848 -0.15906884 0.66678751
0.2020016 -0.20058049 0.65242052
0.24764457 -0.24528408 0.64030957
0.012377269 -0.015023876 0.67424786
0.071181707 -0.072707348 0.6474669
0.090469427 -0.091631457 0.64253545
0.1336564 -0.13416068 0.65259206
0.17216323 -0.17192501 0.63276529
0.22259973 -0.22160874 0.64290488
0.032256037 -0.03463921 0.6583274
0.05231604 -0.054424331 0.66102141
0.11202487 -0.11322796 0.6508038
0.2013002 -0.20128441 0.65242052
0.24678685 -0.24614702 0.64030957
0.070927478 -0.07295537 0.6474669
0.09014903 -0.091946706 0.64253545
0.13213842 -0.13356431 0.64782012
0.17156206 -0.17252493 0.63276529
0.22182482 -0.22238442 0.64290488
0.032134928 -0.034751594 0.6583274
0.052491259 -0.054994624 0.66599292
0.11162894 -0.11361831 0.6508038
0.15717153 -0.15895058 0.66209471
0.20059638 -0.20198584 0.65242052
0.24408647 -0.24515831 0.63604361
0.012272082 -0.01510992 0.67424786
0.070672385 -0.073202513 0.6474669
0.089827523 -0.092260815 0.64253545
0.1316714 -0.13402474 0.64782012
0.16958678 -0.17173195 0.6281628
0.22104721 -0.22315738 0.64290488
0.032013424 -0.034863558 0.6583274
0.052298967 -0.055177517 0.66599292
0.11210828 -0.11490811 0.65564322
0.15661575 -0.15949824 0.66209471
0.1983621 -0.20113426 0.6479193
0.24139607 -0.2441538 0.6317777
0.012219264 -0.015152665 0.67424786
0.070416428 -0.073448762 0.6474669
0.08950492 -0.092573814 0.64253545
0.13120276 -0.13448355 0.64782012
0.16898629 -0.17232287 0.6281628
0.22026688 -0.22392762 0.64290488
0.031891532 -0.034975089 0.6583274
0.052106045 -0.05535974 0.66599292
0.1117065 -0.11529873 0.65564322
0.15605803 -0.16004395 0.66209471
0.19765879 -0.20182544 0.6479193
0.23871565 -0.24313349 0.62751174
0.012150781 -0.015154446 0.6692481
0.070159614 -0.07369411 0.6474669
0.089181237 -0.092885673 0.64253545
0.13073252 -0.13494071 0.64782012
0.16702147 -0.17151134 0.62356025
0.21948391 -0.22469512 0.64290488
0.031769253 -0.0350862 0.6583274
0.051912487 -0.055541284 0.66599292
0.11130335 -0.11568796 0.65564322
0.15549843 -0.16058773 0.66209471
0.19695307 -0.20251416 0.6479193
0.23786552 -0.24396528 0.62751174
0.012097809 -0.015196767 0.6692481
0.069901951 -0.073938571 0.6474669
0.088856466 -0.093196422 0.64253545
0.13026069 -0.13539623 0.64782012
0.16642177 -0.1720933 0.62356025
0.22036524 -0.22717953 0.64729398
0.031646587 -0.035196882 0.6583274
0.051718298 -0.055722155 0.66599292
0.11089884 -0.11607577 0.65564322
0.15374163 -0.15988484 0.65740192
0.19473329 -0.20163395 0.64341813
0.23519881 -0.24291994 0.62324584
0.012029458 -0.015198016 0.66424829
0.06964343 -0.074182123 0.6474669
0.088530608 -0.093506016 0.64253545
0.12978727 -0.13585009 0.64782012
0.16582005 -0.17267317 0.62356025
0.2195709 -0.22794735 0.64729398
0.031523533 -0.035307135 0.6583274
0.051164791 -0.055508021 0.66102141
0.11049299 -0.11646219 0.65564322
0.1531826 -0.16042054 0.65740192
0.19402827 -0.20231247 0.64341813
0.23434943 -0.24373946 0.62324584
0.011976332 -0.015239913 0.66424829
0.068856135 -0.073854662 0.64252764
0.087507695 -0.093071267 0.63764024
0.12931228 -0.13630232 0.64782012
0.16386874 -0.17183639 0.61895776
0.21711889 -0.22698121 0.64290488
0.031212838 -0.035197239 0.65333575
0.050970718 -0.05568628 0.66102141
0.11008579 -0.11684716 0.65564322
0.15262169 -0.16095427 0.65740192
0.19182014 -0.20141149 0.63891685
0.23349719 -0.24455601 0.62324584
0.011923063 -0.015281625 0.66424829
0.068597913 -0.074094564 0.64252764
0.087182276 -0.09337616 0.63764024
0.12781312 -0.13566545 0.64304811
0.16326794 -0.17240734 0.61895776
0.21632527 -0.22773771 0.64290488
0.031089786 -0.035305977 0.65333575
0.050776027 -0.055863865 0.66102141
0.10967725 -0.11723072 0.65564322
0.15205891 -0.16148603 0.65740192
0.19111593 -0.20207983 0.63891685
0.2326421 -0.24536958 0.62324584
0.011884449 -0.015364197 0.6692481
0.068338856 -0.074333563 0.64252764
0.086855806 -0.093679912 0.63764024
0.12733878 -0.13611077 0.64304811
0.16266513 -0.1729762 0.61895776
0.21388619 -0.22674872 0.63851583
0.030966355 -0.035414286 0.65333575
0.050226182 -0.055642702 0.65604991
0.10841301 -0.11669088 0.6508038
0.15149429 -0.16201584 0.65740192
0.19040938 -0.20274572 0.63891685
0.23178419 -0.24618016 0.62324584
0.011830745 -0.015405588 0.6692481
0.068078965 -0.074571662 0.64252764
0.086528279 -0.093982525 0.63764024
0.12686288 -0.13655443 0.64304811
0.16206034 -0.17354296 0.61895776
0.21145663 -0.22574548 0.63412672
0.030842546 -0.035522163 0.65333575
0.050031643 -0.055817686 0.65604991
0.10800503 -0.1170686 0.6508038
0.15092786 -0.16254365 0.65740192
0.18821639 -0.2018165 0.63441563
0.22914279 -0.2450822 0.61897993
0.011776898 -0.01544679 0.6692481
0.067818254 -0.074808843 0.64252764
0.086199693 -0.094283983 0.63764024
0.12638545 -0.13699643 0.64304811
0.16145357 -0.1741076 0.61895776
0.20903672 -0.22472811 0.62973768
0.030718364 -0.035629608 0.65333575
0.050188251 -0.056392513 0.66102141
0.10759573 -0.1174449 0.6508038
0.14919059 -0.16180006 0.65270919
0.18751077 -0.20247228 0.63441563
0.22828588 -0.24588057 0.61897993
0.011722906 -0.015487807 0.6692481
0.067556702 -0.075045116 0.64252764
0.085870057 -0.094584309 0.63764024
0.12590647 -0.13743676 0.64304811
0.15952221 -0.17323227 0.61435527
0.20825098 -0.2254564 0.62973768
0.2565648 -0.27723861 0.62742037
0.030593805 -0.03573662 0.65333575
0.049991097 -0.056567363 0.66102141
0.10634045 -0.11688888 0.64596438
0.18680286 -0.20312558 0.63441563
0.22742623 -0.24667594 0.61897993
0.011668773 -0.015528632 0.6692481
0.067294337 -0.075280473 0.64252764
0.085539363 -0.094883472 0.63764024
0.12542596 -0.13787542 0.64304811
0.15891655 -0.17378806 0.61435527
0.20584439 -0.22441646 0.62534857
0.25559551 -0.27813247 0.62742037
0.030468876 -0.03584319 0.65333575
0.04979334 -0.056741513 0.66102141
0.10593178 -0.11725937 0.64596438
0.18609269 -0.20377642 0.63441563
0.22656378 -0.24746829 0.61897993
0.011614498 -0.01556927 0.6692481
0.067031153 -0.07551492 0.64252764
0.085207641 -0.09518148 0.63764024
0.12494393 -0.1383124 0.64304811
0.15830894 -0.17434172 0.61435527
0.20505977 -0.22513363 0.62534857
0.25272667 -0.27694392 0.62328744
0.03016174 -0.035725102 0.6483441
0.049942501 -0.057319172 0.66599292
0.10552182 -0.11762843 0.64596438
0.18391852 -0.20281158 0.6299144
0.22569855 -0.24825764 0.61897993
0.01156008 -0.015609717 0.6692481
0.066767141 -0.075748444 0.64252764
0.084874876 -0.095478334 0.63764024
0.12545608 -0.13985978 0.64782012
0.15769942 -0.17489326 0.61435527
0.20427267 -0.22584805 0.62534857
0.2517584 -0.27782446 0.62328744
0.030036854 -0.03583017 0.6483441
0.049742114 -0.057493154 0.66599292
0.10427572 -0.11705638 0.64112496
0.18320945 -0.20345233 0.6299144
0.22483061 -0.24904396 0.61897993
0.011505521 -0.015649974 0.6692481
0.066502333 -0.075981043 0.64252764
0.084541082 -0.095774025 0.63764024
0.12496711 -0.14029685 0.64782012
0.15708797 -0.17544267 0.61435527
0.20188327 -0.22477736 0.62095946
0.24890524 -0.27660936 0.61915445
0.0299116 -0.035934798 0.6483441
0.049541123 -0.057666436 0.66599292
0.10386648 -0.11741966 0.64112496
0.18249817 -0.20409063 0.6299144
0.22395991 -0.24982725 0.61897993
0.011450822 -0.01569004 0.6692481
0.065728992 -0.075624526 0.63758838
0.084206253 -0.096068539 0.63764024
0.12447663 -0.14073223 0.64782012
0.15647461 -0.17598994 0.61435527
0.20109743 -0.22548071 0.62095946
0.24793817 -0.27747649 0.61915445
0.029785981 -0.036038995 0.6483441
0.048996247 -0.057431206 0.66102141
0.10345598 -0.1177815 0.64112496
0.18178464 -0.20472641 0.6299144
0.22308648 -0.25060749 0.61897993
0.011382478 -0.015688425 0.66424829
0.065464608 -0.075853504 0.63758838
0.083870396 -0.09636189 0.63764024
0.12398461 -0.14116585 0.64782012
0.15585932 -0.17653507 0.61435527
0.20030914 -0.22618127 0.62095946
0.24696809 -0.27834028 0.61915445
0.029660001 -0.036142744 0.6483441
0.048795477 -0.057601891 0.66102141
0.10386918 -0.11909027 0.64596438
0.1810689 -0.20535971 0.6299144
0.22221035 -0.25138471 0.61897993
0.011327647 -0.015728062 0.66424829
0.065199435 -0.076081552 0.63758838
0.083533518 -0.096654065 0.63764024
0.1234911 -0.14159778 0.64782012
0.15524215 -0.17707802 0.61435527
0.1995184 -0.22687912 0.62095946
0.245995 -0.27920067 0.61915445
0.029533658 -0.036246058 0.6483441
0.04859411 -0.057771865 0.66102141
0.10345285 -0.11945212 0.64596438
0.1789176 -0.20435204 0.62541324
0.21961157 -0.2501983 0.61471397
0.011272676 -0.015767507 0.66424829
0.064933456 -0.076308683 0.63758838
0.082534082 -0.096171036 0.63274503
0.12201992 -0.1408987 0.64304811
0.15334111 -0.17614463 0.60975271
0.19872524 -0.22757418 0.62095946
0.24316643 -0.27793935 0.61502153
0.029584054 -0.036576912 0.65333575
0.04805316 -0.057529762 0.65604991
0.10303526 -0.11981252 0.64596438
0.1429062 -0.16510087 0.64801639
0.1782032 -0.20497534 0.62541324
0.21873687 -0.25096333 0.61471397
0.011217569 -0.015806761 0.66424829
0.064666703 -0.076534875 0.63758838
0.082197882 -0.096458554 0.63274503
0.12152735 -0.14132376 0.64304811
0.15272532 -0.17667882 0.60975271
0.19636123 -0.22645651 0.61657041
0.24219477 -0.27878645 0.61502153
0.029456196 -0.036679957 0.65333575
0.047852051 -0.057697147 0.65604991
0.10343141 -0.12112839 0.6508038
0.14120509 -0.16428924 0.64332366
0.17748661 -0.20559613 0.62541324
0.21785949 -0.25172538 0.61471397
0.011162325 -0.01584582 0.66424829
0.064399153 -0.076760143 0.63758838
0.081860669 -0.096744895 0.63274503
0.12006507 -0.14061104 0.63827616
0.15210766 -0.17721085 0.60975271
0.19556956 -0.22714055 0.61657041
0.24122015 -0.27963018 0.61502153
0.029327981 -0.036782555 0.65333575
0.04798647 -0.058277566 0.66102141
0.10300796 -0.12148869 0.6508038
0.13951139 -0.16346774 0.63863087
0.17535174 -0.20456104 0.62091202
0.21697949 -0.25248429 0.61471397
0.011106945 -0.015884688 0.66424829
0.064130813 -0.076984465 0.63758838
0.081522472 -0.097030044 0.63274503
0.11957351 -0.1410293 0.63827616
0.15148816 -0.17774072 0.60975271
0.19321975 -0.22600092 0.61218131
0.24024257 -0.28047052 0.61502153
0.029199407 -0.036884706 0.65333575
0.047782756 -0.058444712 0.66102141
0.10258327 -0.12184752 0.6508038
0.13782518 -0.16263646 0.63393813
0.17463663 -0.2051719 0.62091202
0.21609683 -0.25324017 0.61471397
0.011064062 -0.015965125 0.6692481
0.063861698 -0.077207856 0.63758838
0.081183277 -0.097314022 0.63274503
0.11908049 -0.14144583 0.63827616
0.15212806 -0.17976041 0.61435527
0.19242968 -0.22667402 0.61218131
0.23926209 -0.2813074 0.61502153
0.029070474 -0.036986403 0.65333575
0.047911666 -0.059027221 0.66599292
0.1021573 -0.12220486 0.6508038
0.13614646 -0.16179541 0.62924534
0.17391938 -0.20578024 0.62091202
0.21521154 -0.25399294 0.61471397
0.011008266 -0.01600365 0.6692481
0.063591801 -0.0774303 0.63758838
0.080843091 -0.097596809 0.63274503
0.11858603 -0.14186063 0.63827616
0.15275571 -0.18178672 0.61895776
0.19163726 -0.22734433 0.61218131
0.2382787 -0.28214085 0.61502153
0.028941194 -0.037087657 0.65333575
0.10092855 -0.12159248 0.64596438
0.13558087 -0.16226965 0.62924534
0.17320003 -0.20638607 0.62091202
0.21432362 -0.25474262 0.61471397
0.010952336 -0.016041977 0.6692481
0.062832147 -0.077047966 0.63264912
0.080501921 -0.097878411 0.63274503
0.11809012 -0.14227371 0.63827616
0.1521202 -0.18231882 0.61895776
0.19084252 -0.22801189 0.61218131
0.028811555 -0.037188455 0.65333575
0.1005035 -0.12194404 0.64596438
0.1339127 -0.16141304 0.62455261
0.17247854 -0.20698939 0.62091202
0.21343312 -0.25548917 0.61471397
0.010896271 -0.016080111 0.6692481
0.062562816 -0.07726682 0.63264912
0.080159768 -0.098158821 0.63274503
0.11759277 -0.14268506 0.63827616
0.15272845 -0.1843538 0.62356025
0.19004545 -0.22867666 0.61218131
0.028681569 -0.037288796 0.65333575
0.046962082 -0.059106167 0.66102141
0.10007722 -0.12229412 0.64596438
0.13334845 -0.16187951 0.62455261
0.17175496 -0.20759019 0.62091202
0.21087544 -0.25422487 0.610448
0.010828028 -0.01607611 0.66424829
0.062292729 -0.077484734 0.63264912
0.079176977 -0.097645834 0.62784976
0.117094 -0.14309466 0.63827616
0.15208401 -0.1848858 0.62356025
0.18772234 -0.22749092 0.60779226
0.028551232 -0.03738869 0.65333575
0.046428099 -0.058849055 0.65604991
0.098858349 -0.12166613 0.64112496
0.13278256 -0.16234399 0.62455261
0.16964811 -0.20650579 0.61641079
0.20998675 -0.2549594 0.610448
0.010771845 -0.01611381 0.66424829
0.06202187 -0.077701703 0.63264912
0.078835636 -0.097921625 0.62784976
0.11659379 -0.14350252 0.63827616
0.15143771 -0.18541555 0.62356025
0.18692711 -0.22814478 0.60779226
0.028420549 -0.037488122 0.65333575
0.045896489 -0.058588937 0.6510784
0.098433048 -0.12201047 0.64112496
0.13221508 -0.16280651 0.62455261
0.16892622 -0.20709673 0.61641079
0.20909548 -0.25569084 0.610448
0.010715531 -0.016151313 0.66424829
0.061750267 -0.077917732 0.63264912
0.078493349 -0.098196216 0.62784976
0.11609216 -0.14390865 0.63827616
0.14955983 -0.18442497 0.61895776
0.18612958 -0.22879589 0.60779226
0.028289516 -0.037587099 0.65333575
0.045367271 -0.058325831 0.64610696
0.098006554 -0.12235332 0.64112496
0.13164598 -0.16326703 0.62455261
0.1682023 -0.20768511 0.61641079
0.20820169 -0.25641915 0.610448
0.010659087 -0.016188618 0.66424829
0.061477911 -0.078132801 0.63264912
0.078150101 -0.098469608 0.62784976
0.11558912 -0.14431299 0.63827616
0.14891514 -0.18494591 0.61895776
0.18532982 -0.22944421 0.60779226
0.027989924 -0.037451006 0.6483441
0.044840444 -0.058059752 0.64113545
0.096797764 -0.12170989 0.63628554
0.13107526 -0.16372557 0.62455261
0.16747631 -0.20827098 0.61641079
0.20730534 -0.25714436 0.610448
0.010602513 -0.016225727 0.66424829
0.061204799 -0.078346923 0.63264912
0.077805907 -0.0987418 0.62784976
0.11508467 -0.14471561 0.63827616
0.14704956 -0.183938 0.61435527
0.18302999 -0.22822085 0.60340315
0.027859025 -0.037548479 0.6483441
0.044637505 -0.058215916 0.64113545
0.096372329 -0.12204703 0.63628554
0.13050295 -0.16418211 0.62455261
0.1667483 -0.20885433 0.61641079
0.2064065 -0.25786644 0.610448
0.010545811 -0.016262637 0.66424829
0.060930945 -0.078560084 0.63264912
0.077460758 -0.099012792 0.62784976
0.11457882 -0.14511645 0.63827616
0.14640659 -0.18445016 0.61435527
0.18223225 -0.22885837 0.60340315
0.027727786 -0.0376455 0.6483441
0.044754006 -0.05879771 0.64610696
0.095945716 -0.12238269 0.63628554
0.12992905 -0.16463664 0.62455261
0.16601825 -0.20943511 0.61641079
0.20550512 -0.25858533 0.610448
0.010488979 -0.01629935 0.66424829
0.06065635 -0.078772306 0.63264912
0.077114664 -0.099282578 0.62784976
0.11407157 -0.1455155 0.63827616
0.14576185 -0.18496011 0.61435527
0.18143225 -0.2294931 0.60340315
0.027596211 -0.037742056 0.6483441
0.044548489 -0.058953572 0.64610696
0.095517941 -0.12271686 0.63628554
0.12935358 -0.16508918 0.62455261
0.16394052 -0.20830213 0.61190957
0.20621622 -0.26134899 0.61471397
0.010420999 -0.016293647 0.65924847
0.060850784 -0.07960245 0.63758838
0.076767638 -0.099551156 0.62784976
0.11356292 -0.1459128 0.63827616
0.14511533 -0.18546779 0.61435527
0.18063007 -0.23012501 0.60340315
0.027464297 -0.037838154 0.6483441
0.044342428 -0.059108716 0.64610696
0.095088996 -0.12304953 0.63628554
0.12877651 -0.1655397 0.62455261
0.16455208 -0.21058901 0.61641079
0.20530267 -0.26206723 0.61471397
0.01036406 -0.016329924 0.65924847
0.06057255 -0.079814374 0.63758838
0.076419666 -0.09981852 0.62784976
0.11305291 -0.14630833 0.63827616
0.14446704 -0.1859732 0.61435527
0.17982569 -0.23075411 0.60340315
0.027332051 -0.037933793 0.6483441
0.044135835 -0.05926314 0.64610696
0.095422685 -0.12437899 0.64112496
0.12714404 -0.16462171 0.61985981
0.16381599 -0.21116212 0.61641079
0.20438665 -0.26278228 0.61471397
0.010306995 -0.016366001 0.65924847
0.060293574 -0.08002533 0.63758838
0.076070771 -0.10008466 0.62784976
0.1125415 -0.14670205 0.63827616
0.14381699 -0.18647635 0.61435527
0.17901912 -0.2313804 0.60340315
0.02719947 -0.03802897 0.6483441
0.043928698 -0.059416842 0.64610696
0.094227634 -0.12371038 0.63628554
0.12656862 -0.16506451 0.61985981
0.16175026 -0.21000744 0.61190957
0.010249805 -0.016401879 0.65924847
0.059550606 -0.079611525 0.63264912
0.075720944 -0.10034959 0.62784976
0.11202873 -0.14709401 0.63827616
0.14197832 -0.18542542 0.60975271
0.17675206 -0.2301041 0.5990141
0.027066559 -0.038123682 0.6483441
0.043408532 -0.059137963 0.64113545
0.093795232 -0.12403854 0.63628554
0.12599166 -0.16550533 0.61985981
0.1610162 -0.21057077 0.61190957
0.010192488 -0.016437558 0.65924847
0.059272345 -0.079818904 0.63264912
0.075370207 -0.10061329 0.62784976
0.11061543 -0.14629267 0.63350415
0.1413302 -0.18591988 0.60975271
0.17594776 -0.23071969 0.5990141
0.02693332 -0.038217928 0.6483441
0.043201838 -0.059289131 0.64113545
0.092608377 -0.12335896 0.63144612
0.12437367 -0.16456665 0.61516708
0.16159575 -0.21286599 0.61641079
0.010135049 -0.016473036 0.65924847
0.058534458 -0.079398304 0.62770981
0.075018533 -0.10087577 0.62784976
0.11010411 -0.14667791 0.63350415
0.14068036 -0.1864121 0.60975271
0.17514133 -0.23133244 0.5990141
0.026638985 -0.038071923 0.64335245
0.042994618 -0.05943957 0.64113545
0.092177205 -0.12368147 0.63144612
0.12379847 -0.1649998 0.61516708
0.16085173 -0.21342878 0.61641079
0.010077486 -0.016508315 0.65924847
0.05825695 -0.079602145 0.62770981
0.074665949 -0.10113702 0.62784976
0.1087006 -0.14586359 0.6287322
0.13885824 -0.18533787 0.60515022
0.17433277 -0.2319424 0.5990141
0.026505927 -0.038164679 0.64335245
0.042478919 -0.05915419 0.63616395
0.090998664 -0.12299102 0.6266067
0.12322176 -0.16543093 0.61516708
0.16010574 -0.21398894 0.61641079
0.010029785 -0.016585864 0.66424829
0.057978727 -0.079805009 0.62770981
0.074312471 -0.10139704 0.62784976
0.10819078 -0.14624213 0.6287322
0.13821045 -0.18582146 0.60515022
0.17209043 -0.23062952 0.594625
0.026372544 -0.038256969 0.64335245
0.042272173 -0.059302106 0.63616395
0.090568788 -0.12330791 0.6266067
0.12161853 -0.16447178 0.61047429
0.1593578 -0.21454652 0.61641079
0.0099718282 -0.016620774 0.66424829
0.058152117 -0.080638692 0.63264912
0.073360734 -0.10083123 0.62295449
0.10767964 -0.14661892 0.6287322
0.13756098 -0.18630275 0.60515022
0.17128433 -0.23122881 0.594625
0.026238844 -0.038348794 0.64335245
0.042064909 -0.0594493 0.63616395
0.09013781 -0.1236233 0.6266067
0.12104367 -0.1648953 0.61047429
0.15860792 -0.21510148 0.61641079
0.00991375 -0.01665548 0.66424829
0.05787028 -0.080841191 0.63264912
0.073008314 -0.10108669 0.62295449
0.1071672 -0.14699388 0.6287322
0.13690983 -0.18678181 0.60515022
0.17047614 -0.23182529 0.594625
0.026104821 -0.038440153 0.64335245
0.041857138 -0.059595775 0.63616395
0.089705743 -0.12393718 0.6266067
0.12046735 -0.16531682 0.61047429
0.15914121 -0.21741097 0.62091202
0.0098555516 -0.016689986 0.66424829
0.058035627 -0.081677623 0.63758838
0.072655007 -0.10134092 0.62295449
0.10665344 -0.14736708 0.6287322
0.13625698 -0.18725857 0.60515022
0.16966589 -0.23241895 0.594625
0.025970481 -0.038531039 0.64335245
0.041347004 -0.059302155 0.63119239
0.089272574 -0.12424956 0.6266067
0.12089998 -0.16713524 0.61516708
0.15838134 -0.21796514 0.62091202
0.0097972322 -0.016724285 0.66424829
0.057750165 -0.081879713 0.63758838
0.072300822 -0.10159392 0.62295449
0.1052686 -0.14652537 0.6239602
0.13445942 -0.18614872 0.60054767
0.16744886 -0.23107 0.59023595
0.025835823 -0.038621459 0.64335245
0.041139748 -0.059446119 0.63119239
0.089566797 -0.12558475 0.63144612
0.12031583 -0.16755626 0.61516708
0.15761954 -0.21851668 0.62091202
0.0097387936 -0.016758382 0.66424829
0.057464004 -0.082080804 0.63758838
0.071945757 -0.10184567 0.62295449
0.10475648 -0.14689192 0.6239602
0.13380882 -0.18661693 0.60054767
0.16664127 -0.23165311 0.59023595
0.025700852 -0.03871141 0.64335245
0.040931992 -0.059589367 0.63119239
0.089127883 -0.12589663 0.63144612
0.1197302 -0.16797522 0.61516708
0.0096802367 -0.016792275 0.66424829
0.056735922 -0.081641309 0.63264912
0.071589805 -0.1020962 0.62295449
0.1042431 -0.1472567 0.6239602
0.13315658 -0.18708287 0.60054767
0.16583163 -0.23223336 0.59023595
0.025565565 -0.038800884 0.64335245
0.040723737 -0.059731882 0.63119239
0.087966561 -0.12517759 0.6266067
0.11914314 -0.16839214 0.61516708
0.0096215624 -0.016825963 0.66424829
0.05645059 -0.081838854 0.63264912
0.071232989 -0.10234546 0.62295449
0.10372844 -0.14761966 0.6239602
0.13250273 -0.18754654 0.60054767
0.16501997 -0.23281081 0.59023595
0.025429972 -0.038889892 0.64335245
0.040514987 -0.05987367 0.63119239
0.087529071 -0.1254839 0.6266067
0.11756383 -0.16739409 0.61047429
0.1540684 -0.21837594 0.61641079
0.0095539736 -0.016816709 0.65924847
0.056164578 -0.082035407 0.63264912
0.070875309 -0.1025935 0.62295449
0.10235975 -0.14675571 0.61918825
0.13184726 -0.18800791 0.60054767
0.16282882 -0.23142619 0.5858469
0.025446363 -0.039223671 0.6483441
0.040305741 -0.060014732 0.63119239
0.087090522 -0.12578866 0.6266067
0.11697879 -0.16780344 0.61047429
0.15330519 -0.21891241 0.61641079
0.0094952146 -0.016849957 0.65924847
0.055877883 -0.082230955 0.63264912
0.070516758 -0.10284026 0.62295449
0.10184686 -0.14711212 0.61918825
0.1311902 -0.188467 0.60054767
0.16202 -0.23199317 0.5858469
0.025309294 -0.039312255 0.6483441
0.040096004 -0.060155056 0.63119239
0.086650901 -0.1260919 0.6266067
0.11639233 -0.16821074 0.61047429
0.1525401 -0.2194462 0.61641079
0.0094363391 -0.016882997 0.65924847
0.055590503 -0.082425512 0.63264912
0.069586203 -0.10224286 0.61805928
0.10133272 -0.14746673 0.61918825
0.13053152 -0.18892379 0.60054767
0.16120921 -0.2325573 0.5858469
0.025171911 -0.039400361 0.6483441
0.039885778 -0.06029465 0.63119239
0.08691711 -0.12743296 0.63144612
0.11482851 -0.16719282 0.60578156
0.15053762 -0.21818498 0.61190957
0.0093773492 -0.016915835 0.65924847
0.055302449 -0.082619056 0.63264912
0.069228888 -0.10248514 0.61805928
0.10081735 -0.14781956 0.61918825
0.12987125 -0.18937828 0.60054767
0.16039644 -0.23311861 0.5858469
0.025034226 -0.039487988 0.6483441
0.039675068 -0.060433514 0.63119239
0.086471766 -0.12773558 0.63144612
0.11424421 -0.16759263 0.60578156
0.14977512 -0.21870914 0.61190957
0.0093182446 -0.016948465 0.65924847
0.055013712 -0.082811594 0.63264912
0.068870723 -0.10272616 0.61805928
0.10113633 -0.14940749 0.6239602
0.12920941 -0.18983045 0.60054767
0.15958174 -0.23367709 0.5858469
0.024747375 -0.039327778 0.64335245
0.039463874 -0.060571637 0.63119239
0.086025357 -0.12803663 0.63144612
0.1136585 -0.16799039 0.60578156
0.14778775 -0.21742967 0.6074084
0.0092590274 -0.016980888 0.65924847
0.055149764 -0.083653286 0.63758838
0.068511724 -0.10296594 0.61805928
0.10061418 -0.14975962 0.6239602
0.12745325 -0.18866087 0.59594518
0.15876508 -0.23423271 0.5858469
0.024609946 -0.039413925 0.64335245
0.039252199 -0.060709022 0.63119239
0.08557789 -0.12833615 0.63144612
0.11307142 -0.1683861 0.60578156
0.14702788 -0.2179442 0.6074084
0.0091996957 -0.017013105 0.65924847
0.054857425 -0.08384528 0.63758838
0.068151891 -0.10320447 0.61805928
0.10009081 -0.15010992 0.6239602
0.12679392 -0.18910462 0.59594518
0.15661034 -0.23279783 0.58145779
0.024472214 -0.039499588 0.64335245
0.039040048 -0.060845666 0.63119239
0.085129403 -0.12863408 0.63144612
0.11248295 -0.16877976 0.60578156
0.14626622 -0.2184561 0.6074084
0.0091402531 -0.017045114 0.65924847
0.05456442 -0.084036253 0.63758838
0.067791224 -0.10344173 0.61805928
0.099566214 -0.15045838 0.6239602
0.12613305 -0.18954606 0.59594518
0.15579677 -0.23334308 0.58145779
0.024334187 -0.039584771 0.64335245
0.038827419 -0.060981568 0.63119239
0.084679864 -0.12893046 0.63144612
0.11189311 -0.16917138 0.60578156
0.14550278 -0.21896535 0.6074084
0.0090806987 -0.017076917 0.65924847
0.054270744 -0.084226213 0.63758838
0.067429736 -0.10367773 0.61805928
0.098222181 -0.14955655 0.61918825
0.12547065 -0.18998519 0.59594518
0.1549813 -0.23388548 0.58145779
0.024195861 -0.039669473 0.64335245
0.038614318 -0.061116733 0.63119239
0.084229298 -0.12922527 0.63144612
0.11035598 -0.1681176 0.6010887
0.14473756 -0.2194719 0.6074084
0.0090210345 -0.017108509 0.65924847
0.054392751 -0.085071184 0.64252764
0.067067415 -0.10391247 0.61805928
0.097699545 -0.1498985 0.61918825
0.12480672 -0.19042201 0.59594518
0.15416396 -0.23442505 0.58145779
0.024057241 -0.03975369 0.64335245
0.038400743 -0.061251149 0.63119239
0.083777703 -0.12951849 0.63144612
0.10976848 -0.16850178 0.6010887
0.14397058 -0.21997578 0.6074084
0.0089612603 -0.017139893 0.65924847
0.054095462 -0.08526054 0.64252764
0.066704288 -0.10414595 0.61805928
0.097175702 -0.1502386 0.61918825
0.12414125 -0.19085652 0.59594518
0.15334471 -0.23496176 0.58145779
0.023918331 -0.039837427 0.64335245
0.038186703 -0.061384819 0.63119239
0.083325088 -0.12981014 0.63144612
0.10917962 -0.16888392 0.6010887
0.14320184 -0.22047701 0.6074084
0.0089013753 -0.01717107 0.65924847
0.053797521 -0.085448846 0.64252764
0.066340342 -0.10437816 0.61805928
0.096650675 -0.1505769 0.61918825
0.12347429 -0.19128868 0.59594518
0.15252359 -0.2354956 0.58145779
0.023779124 -0.039920673 0.64335245
0.037972197 -0.061517745 0.63119239
0.082197577 -0.12903915 0.6266067
0.10858944 -0.169264 0.6010887
0.14125273 -0.21914527 0.60290718
0.0088413823 -0.017202038 0.65924847
0.05349892 -0.085636109 0.64252764
0.065975592 -0.1046091 0.61805928
0.096124478 -0.15091337 0.61918825
0.12280582 -0.19171852 0.59594518
0.15170066 -0.23602657 0.58145779
0.023639631 -0.040003434 0.64335245
0.037757229 -0.061649915 0.63119239
0.081746645 -0.1293253 0.6266067
0.10799794 -0.16964202 0.6010887
0.14048693 -0.21963699 0.60290718
0.0087881312 -0.017275887 0.66424829
0.053199667 -0.085822344 0.64252764
0.065610036 -0.10483876 0.61805928
0.095597103 -0.15124798 0.61918825
0.12108872 -0.19049667 0.59134263
0.14958866 -0.23453498 0.57706875
0.023499848 -0.040085707 0.64335245
0.037541799 -0.061781339 0.63119239
0.080628254 -0.12854412 0.62176728
0.10740511 -0.17001797 0.6010887
0.13971938 -0.22012606 0.60290718
0.0087344712 -0.017349573 0.6692481
0.052494943 -0.0853443 0.63758838
0.065243684 -0.10506714 0.61805928
0.095068574 -0.15158077 0.61918825
0.12042302 -0.19091818 0.59134263
0.14876908 -0.23505571 0.57706875
0.023359781 -0.040167496 0.64335245
0.037325915 -0.061912008 0.63119239
0.079516307 -0.1277567 0.6169278
0.10681099 -0.17039186 0.6010887
0.13779075 -0.21876991 0.59840596
0.008673856 -0.017379958 0.6692481
0.052196711 -0.085527025 0.63758838
0.064876527 -0.10529424 0.61805928
0.094538882 -0.15191168 0.61918825
0.11975586 -0.19133738 0.59134263
0.14794765 -0.23557359 0.57706875
0.023219429 -0.040248789 0.64335245
0.037109576 -0.062041916 0.63119239
0.079069868 -0.12803349 0.6169278
0.10621556 -0.17076366 0.6010887
0.13702627 -0.21924956 0.59840596
0.05189785 -0.0857087 0.63758838
0.064508587 -0.10552006 0.61805928
0.094008036 -0.15224077 0.61918825
0.11805746 -0.19009401 0.58674008
0.14712447 -0.23608859 0.57706875
0.023078792 -0.040329598 0.64335245
0.036892783 -0.062171079 0.63119239
0.077967204 -0.12723607 0.61208838
0.10561884 -0.17113337 0.6010887
0.13511358 -0.21787596 0.59390479
0.051598355 -0.085889339 0.63758838
0.063613616 -0.10487292 0.61316407
0.092697434 -0.15129443 0.61441624
0.11739318 -0.19050494 0.58674008
0.14629948 -0.2366007 0.57706875
0.022937875 -0.040409908 0.64335245
0.036675539 -0.062299483 0.63119239
0.077522598 -0.12750745 0.61208838
0.10502082 -0.17150101 0.6010887
0.13435225 -0.21834628 0.59390479
0.008491382 -0.017469835 0.6692481
0.05169376 -0.08673773 0.64252764
0.063247159 -0.10509433 0.61316407
0.091394596 -0.1503408 0.60964423
0.11672748 -0.19091356 0.58674008
0.14547268 -0.23710994 0.57706875
0.022796679 -0.040489733 0.64335245
0.036457852 -0.062427118 0.63119239
0.077077031 -0.12777728 0.61208838
0.10352656 -0.17039111 0.59639597
0.13358927 -0.21881393 0.59390479
0.0084303487 -0.017499369 0.6692481
0.051390678 -0.086917639 0.64252764
0.06287992 -0.10531446 0.61316407
0.090869248 -0.15065891 0.60964423
0.11504803 -0.18964896 0.58213758
0.14339951 -0.23557009 0.57267964
0.022655204 -0.04056906 0.64335245
0.036239717 -0.062554002 0.63119239
0.075986542 -0.12696609 0.60724896
0.10293116 -0.17075144 0.59639597
0.13395169 -0.22114137 0.59840596
0.008369213 -0.01752869 0.6692481
0.051086962 -0.087096505 0.64252764
0.061994836 -0.10465618 0.60826886
0.089577571 -0.14969355 0.60487223
0.11438533 -0.19004939 0.58213758
0.14257635 -0.2360692 0.57267964
0.022513453 -0.040647894 0.64335245
0.035758737 -0.062216133 0.62622088
0.075542882 -0.12723055 0.60724896
0.10233449 -0.17110971 0.59639597
0.13317896 -0.22160761 0.59840596
0.0083079757 -0.017557796 0.6692481
0.050782628 -0.087274298 0.64252764
0.061629146 -0.10487195 0.60826886
0.089054495 -0.15000531 0.60487223
0.11372123 -0.19044751 0.58213758
0.14175144 -0.23656544 0.57267964
0.022371428 -0.040726233 0.64335245
0.035541341 -0.062340576 0.62622088
0.075098306 -0.12749347 0.60724896
0.10085712 -0.16998114 0.59170324
0.1324046 -0.22207114 0.59840596
0.0082411459 -0.017543403 0.66424829
0.05009152 -0.086776771 0.63758838
0.061262697 -0.10508644 0.60826886
0.088530347 -0.15031525 0.60487223
0.11305575 -0.19084331 0.58213758
0.13970169 -0.23499967 0.56829053
0.022229131 -0.040804077 0.64335245
0.035323516 -0.062464256 0.62622088
0.074020155 -0.12666869 0.60240954
0.10026316 -0.17033216 0.59170324
0.13052112 -0.2206578 0.59390479
0.0081798574 -0.017572064 0.66424829
