# .PCD v0.7 - Point Cloud Data file format
VERSION 0.7
FIELDS x y z
SIZE 4 4 4
TYPE F F F
COUNT 1 1 1
WIDTH 1381
HEIGHT 1
VIEWPOINT 0 0 0 1 0 0 0
POINTS 1381
DATA ascii
0.0054585538 -0.027317951 1.66921
0.064723425 -0.16907035 1.6453792
0.15303081 -0.37974152 1.6138492
0.0053631626 -0.027336836 1.66921
0.064132862 -0.16929524 1.6453792
0.0052677072 -0.027355392 1.66921
0.063541517 -0.16951808 1.6453792
0.0051721865 -0.027373614 1.66921
0.062949404 -0.16973884 1.6453792
0.06217429 -0.1694566 1.6404077
0.061582394 -0.16967261 1.6404077
0.060989756 -0.16988653 1.6404077
0.06039637 -0.17009838 1.6404077
0.059627034 -0.16980475 1.6354362
0.059033938 -0.17001185 1.6354362
0.058440126 -0.17021689 1.6354362
0.057845604 -0.17041984 1.6354362
0.057250377 -0.17062071 1.6354362
0.05665445 -0.17081952 1.6354362
0.056222465 -0.17152321 1.6404077
0.055623394 -0.17171843 1.6404077
0.055023648 -0.17191155 1.6404077
0.054423228 -0.17210257 1.6404077
0.053822145 -0.17229149 1.6404077
0.053220406 -0.1724783 1.6404077
0.052618023 -0.17266303 1.6404077
0.052014992 -0.17284565 1.6404077
0.05156175 -0.17353757 1.6453792
0.050955676 -0.1737165 1.6453792
0.050348982 -0.17389332 1.6453792
0.049886726 -0.17458093 1.6503507
0.049277019 -0.17475401 1.6503507
0.043763552 -0.17621562 1.6503507
0.040063567 -0.17709348 1.6503507
0.039445158 -0.17723225 1.6503507
0.038938817 -0.1778899 1.6553222
0.038317624 -0.17802474 1.6553222
0.03769597 -0.1781574 1.6553222
0.034580953 -0.17878816 1.6553222
0.033956658 -0.17890778 1.6553222
0.033331946 -0.17902522 1.6553222
-0.00034044986 -0.027855884 1.66921
-0.00043768319 -0.027854525 1.66921
-0.00053491071 -0.02785283 1.66921
0.041130848 -0.25462675 1.6402577
-0.00063213194 -0.027850792 1.66921
0.040241782 -0.25476876 1.6402577
0.067321531 -0.40894023 1.6332068
-0.00072934572 -0.027848415 1.66921
0.039234702 -0.2541396 1.6353185
0.06589365 -0.40917271 1.6332068
0.038347352 -0.25427502 1.6353185
0.064464971 -0.40940028 1.6332068
0.03745953 -0.25440735 1.6353185
0.063035503 -0.40962282 1.6332068
0.036571257 -0.25453654 1.6353185
0.061605267 -0.40984032 1.6332068
0.035682533 -0.25466263 1.6353185
0.060174283 -0.41005287 1.6332068
0.034793377 -0.25478566 1.6353185
0.058742568 -0.41026044 1.6332068
0.033903796 -0.25490555 1.6353185
0.057310134 -0.41046298 1.6332068
0.033013806 -0.25502235 1.6353185
0.055876996 -0.41066054 1.6332068
0.032123409 -0.25513604 1.6353185
0.054443188 -0.41085306 1.6332068
0.031232623 -0.25524661 1.6353185
0.053008717 -0.4110406 1.6332068
0.030341454 -0.25535408 1.6353185
0.051573586 -0.41122311 1.6332068
-0.0017978474 -0.027799889 1.66921
0.029449919 -0.25545844 1.6353185
0.050137836 -0.41140068 1.6332068
-0.0018948766 -0.027793445 1.66921
0.028558023 -0.25555968 1.6353185
0.048701476 -0.41157317 1.6332068
-0.0019918825 -0.027786663 1.66921
0.027665779 -0.25565779 1.6353185
0.04726452 -0.41174069 1.6332068
-0.0020888634 -0.027779538 1.66921
0.026773199 -0.2557528 1.6353185
0.04582699 -0.41190311 1.6332068
-0.0021858192 -0.02777208 1.66921
0.025880292 -0.25584471 1.6353185
0.044388901 -0.41206059 1.6332068
-0.0022827489 -0.027764279 1.66921
0.024987068 -0.25593349 1.6353185
0.042950269 -0.41221303 1.6332068
-0.0023796503 -0.027756143 1.66921
0.024093542 -0.25601915 1.6353185
0.041511118 -0.41236046 1.6332068
-0.0024765227 -0.027747668 1.66921
0.023199722 -0.2561017 1.6353185
0.040071454 -0.41250283 1.6332068
-0.0025733653 -0.027738852 1.66921
0.022371987 -0.25695527 1.6402577
0.038631309 -0.41264018 1.6332068
-0.0026701763 -0.027729701 1.66921
0.021474907 -0.2570318 1.6402577
0.037302863 -0.41402447 1.6380463
0.020577572 -0.2571052 1.6402577
0.03585742 -0.41415218 1.6380463
0.019679978 -0.25717545 1.6402577
0.027440799 -0.33638263 1.646057
0.034411542 -0.41427481 1.6380463
0.018782152 -0.25724259 1.6402577
0.026266437 -0.33647636 1.646057
0.032965247 -0.41439241 1.6380463
0.017884092 -0.25730661 1.6402577
0.025091754 -0.336566 1.646057
0.031518545 -0.41450495 1.6380463
0.017035957 -0.25814283 1.6451969
0.023845386 -0.33563581 1.6411617
0.030161768 -0.4158662 1.6428857
0.016134767 -0.25820073 1.6451969
0.022673653 -0.33571702 1.6411617
0.0030207061 -0.10531077 1.6616508
0.028709942 -0.41596892 1.6428857
0.01523338 -0.25825545 1.6451969
0.021501644 -0.33579412 1.6411617
0.0026530847 -0.10532067 1.6616508
0.027257761 -0.41606662 1.6428857
0.014289787 -0.2575312 1.6402577
0.020329373 -0.33586714 1.6411617
0.0022854309 -0.10532928 1.6616508
0.025805254 -0.41615924 1.6428857
0.013390749 -0.25757951 1.6402577
0.019156855 -0.33593604 1.6411617
0.0019177491 -0.10533662 1.6616508
0.024352429 -0.41624677 1.6428857
0.012491547 -0.25762469 1.6402577
0.018037748 -0.33701769 1.646057
0.0015500439 -0.10534267 1.6616508
0.022899307 -0.41632923 1.6428857
0.011592193 -0.25766671 1.6402577
0.016861225 -0.33707857 1.646057
0.0011823199 -0.10534745 1.6616508
0.02144591 -0.4164066 1.6428857
0.010692697 -0.25770563 1.6402577
0.015684498 -0.33713537 1.646057
0.00081458152 -0.10535093 1.6616508
0.019992247 -0.41647893 1.6428857
0.009793072 -0.25774136 1.6402577
0.014507581 -0.33718809 1.646057
0.00044814334 -0.10506444 1.6566591
0.018538343 -0.4165462 1.6428857
0.0088933259 -0.257774 1.6402577
0.013330486 -0.33723664 1.646057
8.1397302e-05 -0.10506536 1.6566591
0.017084215 -0.41660836 1.6428857
0.012153229 -0.33728114 1.646057
-0.00028534979 -0.105065 1.6566591
0.015629875 -0.41666546 1.6428857
0.010975824 -0.33732149 1.646057
-0.00065209332 -0.10506337 1.6566591
0.0097982856 -0.33735776 1.646057
-0.0010188289 -0.10506046 1.6566591
0.0086206272 -0.33738992 1.646057
-0.0013919002 -0.10534488 1.6616508
0.0074428646 -0.33741796 1.646057
-0.0017596142 -0.10533938 1.6616508
0.009839749 -0.41809976 1.6477252
0.0062650107 -0.33744189 1.646057
-0.0021273065 -0.1053326 1.6616508
0.0083802482 -0.41813156 1.6477252
0.0050870804 -0.33746168 1.646057
-0.0024856029 -0.10503599 1.6566591
0.0069206455 -0.41815826 1.6477252
0.0039090882 -0.33747739 1.646057
-0.0028522315 -0.10502667 1.6566591
0.0054609594 -0.41817987 1.6477252
0.00079206203 -0.25792614 1.6402577
0.0027310485 -0.33748898 1.646057
-0.0032188254 -0.10501607 1.6566591
0.0040012058 -0.41819638 1.6477252
-0.00010827306 -0.25792733 1.6402577
0.0015529755 -0.33749646 1.646057
-0.0035853805 -0.10500421 1.6566591
0.0025414033 -0.41820779 1.6477252
-0.0010086067 -0.25792536 1.6402577
0.00037488365 -0.3374998 1.646057
-0.0039518918 -0.10499104 1.6566591
-0.0027206996 -0.18261452 1.6602937
0.0010815703 -0.41821411 1.6477252
-0.0019089283 -0.25792027 1.6402577
-0.00080321287 -0.33749905 1.646057
-0.0043183547 -0.10497661 1.6566591
-0.0033468704 -0.18207099 1.6553222
-0.00037827602 -0.41821536 1.6477252
-0.0028092263 -0.25791204 1.6402577
-0.0019812996 -0.33749422 1.646057
-0.0046847654 -0.1049609 1.6566591
-0.0039692791 -0.1815253 1.6503507
-0.0018381176 -0.41821149 1.6477252
-0.0037094904 -0.25790066 1.6402577
-0.0050511188 -0.1049439 1.6566591
-0.004602897 -0.18151034 1.6503507
-0.0032979369 -0.41820252 1.6477252
-0.0046097091 -0.25788614 1.6402577
-0.0054174103 -0.10492563 1.6566591
-0.005236458 -0.18149316 1.6503507
-0.0047577159 -0.41818845 1.6477252
-0.0055274996 -0.2586453 1.6451969
-0.0057836357 -0.10490608 1.6566591
-0.0058699553 -0.18147379 1.6503507
-0.0062174373 -0.41816929 1.6477252
-0.0064303065 -0.25862443 1.6451969
-0.0061497916 -0.10488526 1.6566591
-0.0065033818 -0.1814522 1.6503507
-0.0076770829 -0.41814506 1.6477252
-0.0073330356 -0.25860041 1.6451969
-0.0065158717 -0.10486314 1.6566591
-0.0071367281 -0.18142839 1.6503507
-0.0091366349 -0.41811571 1.6477252
-0.0082356744 -0.25857323 1.6451969
-0.0068818727 -0.10483977 1.6566591
-0.0077699884 -0.18140237 1.6503507
-0.010596075 -0.41808125 1.6477252
-0.0091382135 -0.2585429 1.6451969
-0.0072477902 -0.1048151 1.6566591
-0.0084031532 -0.18137415 1.6503507
-0.012055387 -0.41804171 1.6477252
-0.010040641 -0.25850943 1.6451969
-0.0076136189 -0.10478917 1.6566591
-0.009036216 -0.1813437 1.6503507
-0.010942945 -0.25847283 1.6451969
-0.0080038132 -0.10504961 1.6616508
-0.0096691679 -0.18131106 1.6503507
-0.011845118 -0.25843304 1.6451969
-0.0083704563 -0.10502103 1.6616508
-0.010302003 -0.18127619 1.6503507
-0.016482376 -0.41914853 1.6525646
-0.012747146 -0.25839013 1.6451969
-0.0087369978 -0.10499117 1.6616508
-0.010934712 -0.18123914 1.6503507
-0.017945377 -0.41908845 1.6525646
-0.013649018 -0.25834402 1.6451969
-0.0091034323 -0.10496003 1.6616508
-0.011567289 -0.18119985 1.6503507
-0.019408157 -0.41902328 1.6525646
-0.006503419 -0.027088221 1.66921
-0.014550724 -0.25829482 1.6451969
-0.009469755 -0.10492761 1.6616508
-0.012199724 -0.18115836 1.6503507
-0.020807547 -0.41769758 1.6477252
-0.0065979343 -0.027065355 1.66921
-0.015452253 -0.25824246 1.6451969
-0.0098359631 -0.10489392 1.6616508
-0.01283201 -0.18111469 1.6503507
-0.022265457 -0.41762239 1.6477252
-0.0066923704 -0.027042158 1.66921
-0.016403733 -0.25896233 1.6501362
-0.010202051 -0.10485895 1.6616508
-0.013505129 -0.18160027 1.6553222
-0.023723098 -0.41754213 1.6477252
-0.0067867241 -0.027018633 1.66921
-0.017307581 -0.2589035 1.6501362
-0.010536536 -0.10453573 1.6566591
-0.01413895 -0.18155202 1.6553222
-0.025180448 -0.41745678 1.6477252
-0.0068809954 -0.02699478 1.66921
-0.018211219 -0.25884148 1.6501362
-0.010901369 -0.10449831 1.6566591
-0.014772599 -0.18150158 1.6553222
-0.026718166 -0.41862074 1.6525646
-0.0069751833 -0.026970595 1.66921
-0.01911463 -0.25877634 1.6501362
-0.01126607 -0.10445962 1.6566591
-0.015406067 -0.18144889 1.6553222
-0.028179264 -0.41852492 1.6525646
-0.020017814 -0.25870803 1.6501362
-0.011630634 -0.10441966 1.6566591
-0.015990943 -0.18086316 1.6503507
-0.029640015 -0.41842398 1.6525646
-0.02092075 -0.25863662 1.6501362
-0.012030538 -0.10466493 1.6616508
-0.016622175 -0.18080623 1.6503507
-0.031100407 -0.41831797 1.6525646
-0.021823434 -0.258562 1.6501362
-0.012395813 -0.1046223 1.6616508
-0.017253205 -0.18074711 1.6503507
-0.032560423 -0.4182069 1.6525646
-0.022656782 -0.25771034 1.6451969
-0.012760938 -0.10457839 1.6616508
-0.017884025 -0.18068579 1.6503507
-0.034020036 -0.41809067 1.6525646
-0.023556218 -0.25762966 1.6451969
-0.013125907 -0.10453321 1.6616508
-0.01857044 -0.18115239 1.6553222
-0.035479236 -0.41796935 1.6525646
-0.02445537 -0.25754589 1.6451969
-0.013490717 -0.10448676 1.6616508
-0.019202666 -0.18108647 1.6553222
-0.036938008 -0.41784298 1.6525646
-0.0076320507 -0.026792124 1.66921
-0.013855361 -0.10443903 1.6616508
-0.01983466 -0.18101832 1.6553222
-0.038396329 -0.4177115 1.6525646
-0.0077255266 -0.02676532 1.66921
-0.014219836 -0.10439003 1.6616508
-0.020466411 -0.18094799 1.6553222
-0.039854176 -0.41757491 1.6525646
-0.0078189075 -0.026738191 1.66921
-0.01458414 -0.10433976 1.6616508
-0.021097913 -0.18087545 1.6553222
-0.041311543 -0.41743326 1.6525646
-0.0079121944 -0.026710734 1.66921
-0.014948265 -0.10428821 1.6616508
-0.021729156 -0.18080069 1.6553222
-0.0080053844 -0.026682954 1.66921
-0.028946441 -0.25707987 1.6451969
-0.015312207 -0.1042354 1.6616508
-0.022360137 -0.18072374 1.6553222
-0.044357877 -0.41838458 1.6574041
-0.0080984756 -0.026654847 1.66921
-0.02984364 -0.25697726 1.6451969
-0.015675962 -0.10418131 1.6616508
-0.022990845 -0.18064459 1.6553222
-0.045818042 -0.41822717 1.6574041
-0.0081914691 -0.026626416 1.66921
-0.030740479 -0.25687149 1.6451969
-0.016039528 -0.10412595 1.6616508
-0.023691863 -0.18109159 1.6602937
-0.047277648 -0.41806468 1.6574041
-0.008284363 -0.02659766 1.66921
-0.031636938 -0.25676262 1.6451969
-0.016402898 -0.10406934 1.6616508
-0.024323845 -0.18100779 1.6602937
-0.048736677 -0.41789711 1.6574041
-0.032533016 -0.25665063 1.6451969
-0.016717624 -0.10372684 1.6566591
-0.024955532 -0.18092178 1.6602937
-0.050195113 -0.41772446 1.6574041
-0.033428691 -0.2565355 1.6451969
-0.017079597 -0.10366786 1.6566591
-0.025586916 -0.18083358 1.6602937
-0.051652938 -0.41754669 1.6574041
-0.034428075 -0.25718725 1.6501362
-0.017441362 -0.1036076 1.6566591
-0.026217986 -0.18074316 1.6602937
-0.05311013 -0.41736382 1.6574041
-0.035325613 -0.25706547 1.6501362
-0.017802913 -0.10354609 1.6566591
-0.026768938 -0.18012349 1.6553222
-0.054566685 -0.41717589 1.6574041
-0.036222726 -0.25694063 1.6501362
-0.018164247 -0.10348332 1.6566591
-0.027397521 -0.18002896 1.6553222
-0.056022566 -0.41698289 1.6574041
-0.037119396 -0.25681263 1.6501362
-0.01852536 -0.10341928 1.6566591
-0.028025774 -0.17993221 1.6553222
-0.057477769 -0.41678479 1.6574041
-0.037900764 -0.25591302 1.6451969
-0.018940642 -0.10363751 1.6616508
-0.028653683 -0.17983331 1.6553222
-0.058932263 -0.4165816 1.6574041
-0.03879384 -0.25577915 1.6451969
-0.019302288 -0.10357077 1.6616508
-0.029368397 -0.18025805 1.6602937
-0.060386047 -0.41637337 1.6574041
-0.039686438 -0.25564221 1.6451969
-0.019663701 -0.10350276 1.6616508
-0.029997436 -0.18015444 1.6602937
-0.061839096 -0.41616002 1.6574041
-0.020024873 -0.10343348 1.6616508
-0.030626111 -0.18004863 1.6602937
-0.063291386 -0.41594166 1.6574041
-0.020385802 -0.10336296 1.6616508
-0.031254411 -0.17994064 1.6602937
-0.064742908 -0.4157182 1.6574041
-0.020746481 -0.10329117 1.6616508
-0.031882331 -0.17983043 1.6602937
-0.06619364 -0.41548967 1.6574041
-0.021106908 -0.10321812 1.6616508
-0.03250986 -0.17971805 1.6602937
-0.067643575 -0.41525605 1.6574041
-0.044275556 -0.25567606 1.6501362
-0.021467077 -0.10314381 1.6616508
-0.033136994 -0.17960349 1.6602937
-0.069092676 -0.41501743 1.6574041
-0.0096650235 -0.02612764 1.66921
-0.045167759 -0.25551996 1.6501362
-0.021826988 -0.10306825 1.6616508
-0.033763725 -0.17948671 1.6602937
-0.070540935 -0.41477373 1.6574041
-0.046059415 -0.25536072 1.6501362
-0.022249898 -0.1032731 1.6666424
-0.034390043 -0.17936777 1.6602937
-0.071988329 -0.41452494 1.6574041
-0.046950508 -0.25519839 1.6501362
-0.022610255 -0.1031948 1.6666424
-0.035015948 -0.17924663 1.6602937
-0.07343486 -0.41427115 1.6574041
-0.047985297 -0.25579643 1.6550754
-0.022970334 -0.10311525 1.6666424
-0.035535969 -0.17860079 1.6553222
-0.074880488 -0.41401228 1.6574041
-0.048877899 -0.25562736 1.6550754
-0.023330133 -0.10303444 1.6666424
-0.036159184 -0.17847566 1.6553222
-0.0763252 -0.41374838 1.6574041
-0.049769904 -0.2554552 1.6550754
-0.023689648 -0.10295238 1.6666424
-0.036781963 -0.17834836 1.6553222
-0.077768989 -0.41347945 1.6574041
-0.050661307 -0.25527993 1.6550754
-0.024048874 -0.10286906 1.6666424
-0.037404291 -0.17821887 1.6553222
-0.079211824 -0.41320547 1.6574041
-0.051552095 -0.25510153 1.6550754
-0.024407808 -0.10278448 1.6666424
-0.038026165 -0.17808723 1.6553222
-0.080653697 -0.41292644 1.6574041
-0.052442249 -0.25492004 1.6550754
-0.024696309 -0.10241862 1.6616508
-0.03864757 -0.17795341 1.6553222
-0.082094587 -0.41264239 1.6574041
-0.05333177 -0.25473541 1.6550754
-0.025053667 -0.10233179 1.6616508
-0.039384879 -0.1783376 1.6602937
-0.083534487 -0.41235331 1.6574041
-0.054220635 -0.25454772 1.6550754
-0.025410721 -0.10224371 1.6616508
-0.040007152 -0.17819902 1.6602937
-0.08497335 -0.41205919 1.6574041
-0.055108842 -0.25435689 1.6550754
-0.025767464 -0.10215439 1.6616508
-0.040748946 -0.17857768 1.6652652
-0.086411193 -0.41176009 1.6574041
-0.055996377 -0.25416297 1.6550754
-0.026123891 -0.10206383 1.6616508
-0.041372046 -0.17843434 1.6652652
-0.088111036 -0.41268507 1.6622435
-0.056883231 -0.25396597 1.6550754
-0.072543591 -0.3316963 1.6558474
-0.02648 -0.10197201 1.6616508
-0.04199465 -0.17828885 1.6652652
-0.089551039 -0.412375 1.6622435
-0.057595927 -0.25300846 1.6501362
-0.073922753 -0.3324348 1.6607426
-0.026835788 -0.10187896 1.6616508
-0.042491302 -0.17762308 1.6602937
-0.090989947 -0.4120599 1.6622435
-0.058478739 -0.25280586 1.6501362
-0.075082719 -0.33217475 1.6607426
-0.027191248 -0.10178466 1.6616508
-0.043111064 -0.17747368 1.6602937
-0.092427753 -0.41173977 1.6622435
-0.059360839 -0.25260019 1.6501362
-0.076013066 -0.33091843 1.6558474
-0.02754638 -0.10168913 1.6616508
-0.0437303 -0.1773221 1.6602937
-0.093864433 -0.41141465 1.6622435
-0.07716772 -0.3306511 1.6558474
-0.027901173 -0.10159235 1.6616508
-0.044349004 -0.17716837 1.6602937
-0.095299959 -0.41108447 1.6622435
-0.078321449 -0.33037969 1.6558474
-0.028255627 -0.10149434 1.6616508
-0.044967167 -0.17701249 1.6602937
-0.09673433 -0.41074929 1.6622435
-0.079474211 -0.33010432 1.6558474
-0.028609734 -0.10139509 1.6616508
-0.045584779 -0.17685445 1.6602937
-0.098167524 -0.41040912 1.6622435
-0.080868527 -0.33081377 1.6607426
-0.028963495 -0.10129461 1.6616508
-0.04620184 -0.17669426 1.6602937
-0.099599525 -0.41006398 1.6622435
-0.082022794 -0.33052948 1.6607426
-0.0293169 -0.10119289 1.6616508
-0.046818338 -0.17653191 1.6602937
-0.10103031 -0.4097138 1.6622435
-0.083176054 -0.33024114 1.6607426
-0.029669954 -0.10108993 1.6616508
-0.047434259 -0.17636739 1.6602937
-0.10245986 -0.40935865 1.6622435
-0.084328309 -0.32994878 1.6607426
-0.030107334 -0.10126173 1.6666424
-0.04804961 -0.17620075 1.6602937
-0.10388817 -0.40899852 1.6622435
-0.085479528 -0.32965243 1.6607426
-0.030460622 -0.10115603 1.6666424
-0.048664369 -0.17603195 1.6602937
-0.1056295 -0.40985042 1.6670829
-0.086629711 -0.32935205 1.6607426
-0.030813538 -0.10104908 1.6666424
-0.049278542 -0.17586102 1.6602937
-0.10705949 -0.40947923 1.6670829
-0.087515652 -0.32806405 1.6558474
-0.031166077 -0.10094091 1.6666424
-0.049892113 -0.17568792 1.6602937
-0.10848819 -0.40910301 1.6670829
-0.08866027 -0.32775655 1.6558474
-0.031518236 -0.10083151 1.6666424
-0.050505076 -0.17551269 1.6602937
-0.10991557 -0.4087218 1.6670829
-0.012168506 -0.025059801 1.66921
-0.089803815 -0.32744509 1.6558474
-0.031870008 -0.10072087 1.6666424
-0.05111742 -0.17533532 1.6602937
-0.1113416 -0.40833569 1.6670829
-0.012255907 -0.025017172 1.66921
-0.090946265 -0.3271296 1.6558474
-0.032221396 -0.100609 1.6666424
-0.051881522 -0.17566663 1.6652652
-0.11276629 -0.4079445 1.6670829
-0.012343159 -0.024974238 1.66921
-0.092364497 -0.32778999 1.6607426
-0.032480981 -0.10022209 1.6616508
-0.052494396 -0.17548448 1.6652652
-0.11418959 -0.4075484 1.6670829
-0.01243026 -0.024931002 1.66921
-0.093508139 -0.32746556 1.6607426
-0.032830626 -0.1001081 1.6616508
-0.053262573 -0.17580989 1.6702367
-0.11561151 -0.40714732 1.6670829
-0.01251721 -0.024887459 1.66921
-0.094934374 -0.32811505 1.665638
-0.033179868 -0.099992894 1.6616508
-0.11703201 -0.40674129 1.6670829
-0.012604007 -0.024843615 1.66921
-0.096079126 -0.32778165 1.665638
-0.033528704 -0.099876463 1.6616508
-0.11845109 -0.40633029 1.6670829
-0.01269065 -0.024799468 1.66921
-0.097222716 -0.32744431 1.665638
-0.033877134 -0.099758819 1.6616508
-0.11986873 -0.40591434 1.6670829
-0.01277714 -0.024755018 1.66921
-0.098365113 -0.32710296 1.665638
-0.034321327 -0.099912152 1.6666424
-0.1212849 -0.40549344 1.6670829
-0.012863473 -0.024710266 1.66921
-0.099208958 -0.32578376 1.6607426
-0.034669876 -0.099791743 1.6666424
-0.1226996 -0.40506759 1.6670829
-0.012949649 -0.024665212 1.66921
-0.10034555 -0.32543546 1.6607426
-0.035018004 -0.099670112 1.6666424
-0.1241128 -0.40463686 1.6670829
-0.013035669 -0.024619861 1.66921
-0.035365704 -0.09954726 1.6666424
-0.12589787 -0.40540138 1.6719223
-0.035712972 -0.099423207 1.6666424
-0.12731221 -0.40495944 1.6719223
-0.036059808 -0.099297941 1.6666424
-0.12872501 -0.40451258 1.6719223
-0.036406204 -0.099171467 1.6666424
-0.13013624 -0.40406078 1.6719223
-0.036752157 -0.099043779 1.6666424
-0.13154587 -0.40360403 1.6719223
-0.037097659 -0.098914891 1.6666424
-0.060578004 -0.17342529 1.6702367
-0.13295393 -0.40314242 1.6719223
-0.037442707 -0.098784797 1.6666424
-0.061183006 -0.17321277 1.6702367
-0.13436033 -0.40267587 1.6719223
-0.037787303 -0.098653488 1.6666424
-0.061606601 -0.17249663 1.6652652
-0.13576512 -0.40220439 1.6719223
-0.038131438 -0.098520987 1.6666424
-0.062208351 -0.17228054 1.6652652
-0.13716824 -0.40172803 1.6719223
-0.038367618 -0.098119356 1.6616508
-0.062993497 -0.17256257 1.6702367
-0.1385697 -0.40124679 1.6719223
-0.038709886 -0.097984828 1.6616508
-0.063595466 -0.17234163 1.6702367
-0.13996948 -0.40076065 1.6719223
-0.039051678 -0.097849101 1.6616508
-0.064196661 -0.1721186 1.6702367
-0.14136752 -0.40026963 1.6719223
-0.039393 -0.097712196 1.6616508
-0.14276387 -0.39977372 1.6719223
-0.039733842 -0.097574092 1.6616508
-0.14415847 -0.39927295 1.6719223
-0.040074192 -0.097434804 1.6616508
-0.14555132 -0.39876732 1.6719223
-0.040414061 -0.097294323 1.6616508
-0.14650671 -0.39707777 1.6670829
-0.040753435 -0.097152658 1.6616508
-0.14789188 -0.39656392 1.6670829
-0.041092314 -0.097009808 1.6616508
-0.14927524 -0.39604527 1.6670829
-0.041430686 -0.096865781 1.6616508
-0.15110479 -0.39669621 1.6719223
-0.041768562 -0.096720569 1.6616508
-0.1524886 -0.39616635 1.6719223
-0.042105924 -0.09657418 1.6616508
-0.042442776 -0.096426621 1.6616508
-0.04277911 -0.096277878 1.6616508
-0.070963256 -0.17001872 1.6752081
-0.043235369 -0.096390322 1.6666424
-0.0715563 -0.16976997 1.6752081
-0.043571573 -0.096238814 1.6666424
-0.072148472 -0.16951916 1.6752081
-0.043907244 -0.09608613 1.6666424
-0.072739758 -0.16926628 1.6752081
-0.044242375 -0.095932283 1.6666424
-0.073330164 -0.16901134 1.6752081
-0.044576973 -0.095777266 1.6666424
-0.073919676 -0.16875435 1.6752081
-0.044911031 -0.095621079 1.6666424
-0.074508287 -0.1684953 1.6752081
-0.045244537 -0.09546373 1.6666424
-0.075095996 -0.1682342 1.6752081
-0.045577489 -0.095305219 1.6666424
-0.075682789 -0.16797103 1.6752081
-0.045909889 -0.095145538 1.6666424
-0.076268658 -0.16770582 1.6752081
-0.046370365 -0.095243156 1.6716341
-0.076853588 -0.16743857 1.6752081
-0.077437595 -0.16716929 1.6752081
-0.078020647 -0.16689795 1.6752081
-0.078602754 -0.16662461 1.6752081
-0.079183906 -0.16634922 1.6752081
-0.07976409 -0.16607179 1.6752081
-0.048086781 -0.093739763 1.6616508
-0.048548609 -0.093826562 1.6666424
-0.083797775 -0.16407341 1.6752081
-0.084369995 -0.16377988 1.6752081
-0.084941171 -0.16348439 1.6752081
-0.051007487 -0.092183068 1.6616508
-0.085262641 -0.16271542 1.6702367
-0.0858301 -0.16241682 1.6702367
-0.086648487 -0.16258593 1.6752081
-0.052259229 -0.092143595 1.6716341
-0.087215491 -0.1622825 1.6752081
-0.017418073 -0.021741133 1.66921
-0.017493857 -0.021680202 1.66921
-0.017569428 -0.021619003 1.66921
-0.017644785 -0.021557543 1.66921
-0.017719928 -0.021495823 1.66921
-0.054963183 -0.09089423 1.6766257
-0.05512774 -0.09045662 1.6716341
-0.055474661 -0.090244293 1.6716341
-0.055789337 -0.090050094 1.6716341
-0.093707897 -0.15924095 1.6801796
-0.056071963 -0.089874379 1.6716341
-0.094207704 -0.15894577 1.6801796
-0.056603897 -0.089881651 1.6766257
-0.094900332 -0.1585332 1.6801796
-0.05701118 -0.089623868 1.6766257
-0.095591158 -0.15811761 1.6801796
-0.096142516 -0.15778297 1.6801796
-0.059798207 -0.08778888 1.6766257
-0.10075842 -0.15423971 1.6752081
-0.10100193 -0.15344262 1.6702367
-0.22850613 -0.36073002 1.6816012
-0.10153691 -0.15308912 1.6702367
-0.22976393 -0.35993019 1.6816012
-0.10207067 -0.15273376 1.6702367
-0.2310189 -0.359126 1.6816012
-0.1026032 -0.15237653 1.6702367
-0.23295529 -0.35937181 1.6864406
-0.10313446 -0.15201746 1.6702367
-0.23420833 -0.35855642 1.6864406
-0.10396647 -0.15209575 1.6752081
-0.23545849 -0.35773674 1.6864406
-0.019458093 -0.019995632 1.6742097
-0.10449675 -0.15173194 1.6752081
-0.23670578 -0.35691264 1.6864406
-0.019527771 -0.019927589 1.6742097
-0.10502575 -0.15136625 1.6752081
-0.23795022 -0.35608423 1.6864406
-0.019597214 -0.019859303 1.6742097
-0.10555349 -0.15099871 1.6752081
-0.23919171 -0.35525143 1.6864406
-0.019666415 -0.019790776 1.6742097
-0.10607993 -0.15062934 1.6752081
-0.24043033 -0.35441431 1.6864406
-0.019735377 -0.019722005 1.6742097
-0.10660508 -0.15025812 1.6752081
-0.241666 -0.35357291 1.6864406
-0.019804101 -0.019652996 1.6742097
-0.1068178 -0.14945227 1.6702367
-0.24289872 -0.3527272 1.6864406
-0.019872583 -0.019583747 1.6742097
-0.10733882 -0.1490785 1.6702367
-0.24412848 -0.35187715 1.6864406
-0.01994082 -0.019514259 1.6742097
-0.10785855 -0.1487029 1.6702367
-0.24535529 -0.35102284 1.6864406
-0.020008817 -0.019444535 1.6742097
-0.10837697 -0.1483255 1.6702367
-0.24657908 -0.35016423 1.6864406
-0.020076569 -0.019374572 1.6742097
-0.10952836 -0.14880317 1.6801796
-0.24779987 -0.34930143 1.6864406
-0.020144077 -0.019304372 1.6742097
-0.24901766 -0.3484343 1.6864406
-0.25023243 -0.34756294 1.6864406
-0.25144413 -0.34668735 1.6864406
-0.25265273 -0.34580752 1.6864406
-0.25385827 -0.34492353 1.6864406
-0.25506073 -0.34403527 1.6864406
-0.2562601 -0.34314281 1.6864406
-0.20819487 -0.27590916 1.6852188
-0.25745633 -0.34224623 1.6864406
-0.20853995 -0.27437055 1.6803236
-0.25940904 -0.34234697 1.69128
-0.020740502 -0.018662108 1.6742097
-0.20949641 -0.27364093 1.6803236
-0.2606025 -0.34143937 1.69128
-0.020805519 -0.018589595 1.6742097
-0.21045032 -0.272908 1.6803236
-0.26179275 -0.34052759 1.69128
-0.020832205 -0.018495552 1.66921
-0.21140167 -0.27217171 1.6803236
-0.11566351 -0.14408608 1.6801796
-0.26297981 -0.33961171 1.69128
-0.02089664 -0.018422719 1.66921
-0.21235043 -0.27143213 1.6803236
-0.11616575 -0.14368145 1.6801796
-0.26416367 -0.33869165 1.69128
-0.020960819 -0.018349666 1.66921
-0.21329661 -0.27068925 1.6803236
-0.11666659 -0.1432751 1.6801796
-0.26534432 -0.33776751 1.69128
-0.021024745 -0.018276386 1.66921
-0.21424019 -0.26994303 1.6803236
-0.11750514 -0.14327826 1.6851511
-0.26652172 -0.3368392 1.69128
-0.021126783 -0.018223658 1.6742097
-0.21518117 -0.26919356 1.6803236
-0.11800456 -0.14286721 1.6851511
-0.021190267 -0.018149801 1.6742097
-0.21611953 -0.26844078 1.6803236
-0.021253493 -0.018075723 1.6742097
-0.21705525 -0.26768476 1.6803236
-0.021316458 -0.018001424 1.6742097
-0.2179883 -0.26692548 1.6803236
-0.021379165 -0.017926905 1.6742097
-0.21891871 -0.26616293 1.6803236
-0.021441612 -0.017852169 1.6742097
-0.21984646 -0.26539713 1.6803236
-0.021503797 -0.017777216 1.6742097
-0.22077154 -0.26462808 1.6803236
-0.02156572 -0.017702045 1.6742097
-0.22169392 -0.26385587 1.6803236
-0.02162738 -0.01762666 1.6742097
-0.22327191 -0.26385719 1.6852188
-0.021688778 -0.017551057 1.6742097
-0.22419158 -0.26307622 1.6852188
-0.22510852 -0.26229206 1.6852188
-0.22602272 -0.26150468 1.6852188
-0.22693416 -0.26071411 1.6852188
-0.12388371 -0.13780038 1.6851511
-0.22784284 -0.25992039 1.6852188
-0.12400515 -0.13697289 1.6801796
-0.22874875 -0.25912347 1.6852188
-0.12448252 -0.13653921 1.6801796
-0.22965185 -0.2583234 1.6852188
-0.12495837 -0.13610384 1.6801796
-0.23055217 -0.2575202 1.6852188
-0.1254327 -0.13566682 1.6801796
-0.23144968 -0.25671384 1.6852188
-0.12626979 -0.1356173 1.6851511
-0.23234437 -0.25590438 1.6852188
-0.23323622 -0.25509179 1.6852188
-0.23412526 -0.2542761 1.6852188
-0.022404715 -0.016627431 1.6742097
-0.23501141 -0.25345728 1.6852188
-0.022462618 -0.016549122 1.6742097
-0.23589471 -0.25263542 1.6852188
-0.022520248 -0.016470613 1.6742097
-0.23677514 -0.25181043 1.6852188
-0.12908226 -0.13294317 1.6851511
-0.022577606 -0.016391901 1.6742097
-0.23765269 -0.2509824 1.6852188
-0.12954551 -0.13249178 1.6851511
-0.022594651 -0.016295642 1.66921
-0.23852731 -0.25015131 1.6852188
-0.1296322 -0.13165994 1.6801796
-0.022651395 -0.016216673 1.66921
-0.23939906 -0.24931717 1.6852188
-0.13009098 -0.13120663 1.6801796
-0.022707865 -0.016137505 1.66921
-0.24026787 -0.24848001 1.6852188
-0.13092585 -0.13112794 1.6851511
-0.022764057 -0.016058141 1.66921
-0.24113378 -0.24763979 1.6852188
-0.13138278 -0.13067012 1.6851511
-0.02281997 -0.015978582 1.66921
-0.24199671 -0.24679658 1.6852188
-0.022875607 -0.015898829 1.66921
-0.24357267 -0.24667431 1.690114
-0.022930965 -0.015818881 1.66921
-0.24443224 -0.24582261 1.690114
-0.023026491 -0.015755106 1.6742097
-0.24528883 -0.24496786 1.690114
-0.023081347 -0.015674634 1.6742097
-0.24614243 -0.24411017 1.690114
-0.023135919 -0.015593968 1.6742097
-0.24699304 -0.24324948 1.690114
-0.24784064 -0.24238583 1.690114
-0.24868521 -0.24151921 1.690114
-0.023297947 -0.01535084 1.6742097
-0.24952675 -0.24064967 1.690114
-0.02335139 -0.015269421 1.6742097
-0.25036526 -0.23977719 1.690114
-0.02340455 -0.015187817 1.6742097
-0.25120071 -0.23890179 1.690114
-0.023457423 -0.015106028 1.6742097
-0.25203311 -0.23802349 1.690114
-0.13673942 -0.12505376 1.6851511
-0.023510009 -0.015024053 1.6742097
-0.25286242 -0.23714228 1.690114
-0.13717511 -0.1245757 1.6851511
-0.023562308 -0.014941896 1.6742097
-0.25368866 -0.23625818 1.690114
-0.13760912 -0.1240961 1.6851511
-0.25451183 -0.23537119 1.690114
-0.13804147 -0.123615 1.6851511
-0.25533187 -0.23448136 1.690114
-0.13847211 -0.1231324 1.6851511
-0.25614879 -0.23358865 1.690114
-0.13890108 -0.1226483 1.6851511
-0.25771785 -0.233376 1.6950094
-0.13932838 -0.12216269 1.6851511
-0.25853091 -0.23247495 1.6950094
-0.14015692 -0.12202455 1.6901227
-0.25934082 -0.23157111 1.6950094
-0.14058203 -0.12153457 1.6901227
-0.2601476 -0.23066442 1.6950094
-0.26095119 -0.22975495 1.6950094
-0.26175159 -0.22884266 1.6950094
-0.2625488 -0.22792757 1.6950094
-0.2633428 -0.22700973 1.6950094
-0.024167342 -0.013942102 1.6742097
-0.2641336 -0.22608911 1.6950094
-0.024215862 -0.013857659 1.6742097
-0.26492119 -0.22516574 1.6950094
-0.26570556 -0.22423959 1.6950094
-0.2664867 -0.22331075 1.6950094
-0.26726454 -0.22237919 1.6950094
-0.2680392 -0.2214449 1.6950094
-0.26881051 -0.22050792 1.6950094
-0.26957861 -0.21956824 1.6950094
-0.27034342 -0.2186259 1.6950094
-0.27110493 -0.2176809 1.6950094
-0.14674999 -0.11401051 1.6901227
-0.27186313 -0.21673323 1.6950094
-0.14672409 -0.11317313 1.6851511
-0.14711824 -0.11266027 1.6851511
-0.14751062 -0.11214605 1.6851511
-0.14790118 -0.11163045 1.6851511
-0.14786249 -0.11079501 1.6801796
-0.14824833 -0.1102782 1.6801796
-0.14863236 -0.10976005 1.6801796
-0.14901461 -0.10924055 1.6801796
-0.149395 -0.10871974 1.6801796
-0.15020654 -0.10850857 1.6851511
-0.15058438 -0.10798359 1.6851511
-0.15096042 -0.10745729 1.6851511
-0.15133458 -0.10692968 1.6851511
-0.15170692 -0.10640078 1.6851511
-0.15207739 -0.10587058 1.6851511
-0.15244603 -0.10533907 1.6851511
-0.15281279 -0.1048063 1.6851511
-0.15317772 -0.10427225 1.6851511
-0.15354076 -0.10373693 1.6851511
-0.15390193 -0.10320034 1.6851511
-0.15426125 -0.10266249 1.6851511
-0.15461865 -0.10212339 1.6851511
-0.15497419 -0.10158304 1.6851511
-0.15532784 -0.10104147 1.6851511
-0.15567958 -0.10049866 1.6851511
-0.15602945 -0.09995462 1.6851511
-0.1563774 -0.099409372 1.6851511
-0.15672344 -0.098862909 1.6851511
-0.025798978 -0.010623343 1.6742097
-0.15661499 -0.098033622 1.6801796
-0.025835903 -0.010533224 1.6742097
-0.15695623 -0.09748634 1.6801796
-0.025872514 -0.010442976 1.6742097
-0.15729557 -0.096937865 1.6801796
-0.025865765 -0.010345451 1.66921
-0.15763299 -0.096388206 1.6801796
-0.02590172 -0.010255099 1.66921
-0.15796849 -0.095837384 1.6801796
-0.02593736 -0.010164623 1.66921
-0.15830207 -0.095285386 1.6801796
-0.025972683 -0.010074023 1.66921
-0.15909211 -0.095004298 1.6851511
-0.02600769 -0.0099832993 1.66921
-0.15942276 -0.094448388 1.6851511
-0.026042379 -0.0098924553 1.66921
-0.15975147 -0.093891323 1.6851511
-0.026119933 -0.0098077357 1.6742097
-0.16007826 -0.09333311 1.6851511
-0.16086523 -0.093039416 1.6901227
-0.093568429 -0.050882943 1.6816174
-0.16165207 -0.092741348 1.6950942
-0.09374547 -0.050556019 1.6816174
-0.093665622 -0.050094549 1.6766257
-0.093839921 -0.049767289 1.6766257
-0.094013065 -0.049439427 1.6766257
-0.094185062 -0.049110956 1.6766257
-0.094613515 -0.048912235 1.6816174
-0.026415115 -0.0089824488 1.6742097
-0.094783679 -0.048581671 1.6816174
-0.026446309 -0.0088901892 1.6742097
-0.02647718 -0.0087978197 1.6742097
-0.16414732 -0.085975409 1.6851511
-0.095681205 -0.046128299 1.6766257
-0.096524872 -0.04570175 1.686609
-0.096421406 -0.045244176 1.6816174
-0.097196348 -0.0435545 1.6816174
-0.097381443 -0.042421304 1.6766257
-0.09806104 -0.042305239 1.686609
-0.097941667 -0.041851558 1.6816174
-0.098087162 -0.041509423 1.6816174
-0.098260179 -0.041098192 1.6816174
-0.24414103 -0.11060903 1.7044681
-0.098445669 -0.04065188 1.6816174
-0.24452563 -0.10975614 1.7044681
-0.098586962 -0.040307991 1.6816174
-0.24490726 -0.10890193 1.7044681
-0.098727062 -0.039963614 1.6816174
-0.24457446 -0.10773407 1.6995289
-0.098865964 -0.039618749 1.6816174
-0.24494903 -0.10687969 1.6995289
-0.099003658 -0.039273404 1.6816174
-0.24460699 -0.10571666 1.6945896
-0.098870516 -0.038824398 1.6766257
-0.24497451 -0.10486218 1.6945896
-0.099005438 -0.038479041 1.6766257
-0.24533907 -0.10400642 1.6945896
-0.099139147 -0.038133211 1.6766257
-0.24570061 -0.10314939 1.6945896
-0.099271655 -0.037786916 1.6766257
-0.027262157 -0.0059344326 1.6742097
-0.24605916 -0.10229111 1.6945896
-0.099402949 -0.03744017 1.6766257
-0.027282706 -0.0058392342 1.6742097
-0.24641474 -0.10143158 1.6945896
-0.099804424 -0.037191413 1.6816174
-0.027302923 -0.0057439641 1.6742097
-0.2467673 -0.10057081 1.6945896
-0.099933639 -0.036842804 1.6816174
-0.027322806 -0.0056486246 1.6742097
-0.24711685 -0.099708818 1.6945896
-0.10033369 -0.036590301 1.686609
-0.027342357 -0.0055532153 1.6742097
-0.24746339 -0.098845616 1.6945896
-0.027361576 -0.0054577389 1.6742097
-0.24780694 -0.0979812 1.6945896
-0.24814743 -0.097115606 1.6945896
-0.24848492 -0.096248806 1.6945896
-0.24881937 -0.095380858 1.6945896
-0.24915081 -0.094511732 1.6945896
-0.2494792 -0.093641452 1.6945896
-0.10119772 -0.03412801 1.686609
-0.24980454 -0.092770047 1.6945896
-0.10131624 -0.033774555 1.686609
-0.25012684 -0.091897495 1.6945896
-0.10143352 -0.033420689 1.686609
-0.17562942 -0.062343068 1.6950942
-0.25044611 -0.091023833 1.6945896
-0.10154956 -0.033066414 1.686609
-0.17534254 -0.061554417 1.6901227
-0.25076231 -0.090149052 1.6945896
-0.10166436 -0.032711741 1.686609
-0.17555635 -0.060941979 1.6901227
-0.25107545 -0.089273185 1.6945896
-0.17526335 -0.060157098 1.6851511
-0.25138554 -0.088396221 1.6945896
-0.17547226 -0.059544951 1.6851511
-0.25169259 -0.087518185 1.6945896
-0.17618489 -0.059100252 1.6901227
-0.25199655 -0.086639076 1.6945896
-0.10211118 -0.031289097 1.686609
-0.17639011 -0.05848489 1.6901227
-0.25229743 -0.085758924 1.6945896
-0.10221978 -0.030932471 1.686609
-0.17710017 -0.058033451 1.6950942
-0.25259525 -0.084877722 1.6945896
-0.10232712 -0.030575467 1.686609
-0.17730168 -0.057414901 1.6950942
-0.25362769 -0.084239453 1.6995289
-0.17750101 -0.056795657 1.6950942
-0.2539202 -0.083353609 1.6995289
-0.17820688 -0.056335028 1.7000657
-0.25420961 -0.082466759 1.6995289
-0.17840242 -0.055712633 1.7000657
-0.25449592 -0.081578903 1.6995289
-0.17859581 -0.055089548 1.7000657
-0.25477913 -0.080690041 1.6995289
-0.17878702 -0.054465797 1.7000657
-0.25505924 -0.079800203 1.6995289
-0.17897606 -0.053841382 1.7000657
-0.25459361 -0.078680925 1.6945896
-0.10304361 -0.028066266 1.686609
-0.1791629 -0.053216312 1.7000657
-0.25486669 -0.07779175 1.6945896
-0.10314095 -0.027706405 1.686609
-0.17934759 -0.05259059 1.7000657
-0.027722307 -0.00314904 1.6742097
-0.2551367 -0.076901622 1.6945896
-0.10295734 -0.027274705 1.6816174
-0.17953007 -0.051964231 1.7000657
-0.027733129 -0.0030522521 1.6742097
-0.25540358 -0.076010562 1.6945896
-0.10305192 -0.026915152 1.6816174
-0.17919742 -0.051192187 1.6950942
-0.027743613 -0.0029554269 1.6742097
-0.25566736 -0.075118572 1.6945896
-0.10314524 -0.026555272 1.6816174
-0.17937502 -0.050566357 1.6950942
-0.027753763 -0.0028585657 1.6742097
-0.25592798 -0.074225679 1.6945896
-0.10323731 -0.026195064 1.6816174
-0.17955044 -0.049939912 1.6950942
-0.027763572 -0.0027616695 1.6742097
-0.25618553 -0.07333187 1.6945896
-0.10332812 -0.02583454 1.6816174
-0.17972367 -0.04931286 1.6950942
-0.027773041 -0.0026647402 1.6742097
-0.25643992 -0.07243716 1.6945896
-0.10369857 -0.025540307 1.686609
-0.17989472 -0.048685208 1.6950942
-0.027738873 -0.0025731479 1.66921
-0.25669122 -0.071541585 1.6945896
-0.10378709 -0.025178179 1.686609
-0.18006356 -0.048056964 1.6950942
-0.027747687 -0.0024763052 1.66921
-0.25693938 -0.070645124 1.6945896
-0.10387434 -0.024815738 1.686609
-0.1802302 -0.047428135 1.6950942
-0.02775616 -0.0023794328 1.66921
-0.25718442 -0.069747813 1.6945896
-0.18039466 -0.046798721 1.6950942
-0.027721055 -0.0022883546 1.6642101
-0.25742632 -0.068849646 1.6945896
-0.18107373 -0.046299417 1.7000657
-0.027728874 -0.0021915762 1.6642101
-0.2576651 -0.067950636 1.6945896
-0.18123421 -0.045667071 1.7000657
-0.027736355 -0.0020947712 1.6642101
-0.25790071 -0.0670508 1.6945896
-0.18139254 -0.045034166 1.7000657
-0.0277435 -0.00199794 1.6642101
-0.25813317 -0.066150151 1.6945896
-0.10429162 -0.022999102 1.686609
-0.02779346 -0.0018946591 1.66921
-0.25836253 -0.065248698 1.6945896
-0.10437126 -0.022634916 1.686609
-0.027799904 -0.0017976298 1.66921
-0.25858873 -0.064346448 1.6945896
-0.10444964 -0.022270456 1.686609
-0.02780601 -0.001700579 1.66921
-0.25881174 -0.063443415 1.6945896
-0.10452674 -0.021905724 1.686609
-0.027811777 -0.0016035074 1.66921
-0.10460258 -0.021540722 1.686609
-0.027817205 -0.0015064168 1.66921
-0.10467713 -0.021175461 1.686609
-0.027822293 -0.0014093074 1.66921
-0.1047504 -0.020809939 1.686609
-0.027827043 -0.0013121807 1.66921
-0.1048224 -0.020444166 1.686609
-0.18205819 -0.039839275 1.6950942
-0.027788468 -0.0012225176 1.6642101
-0.10460914 -0.020026326 1.6816174
-0.18167473 -0.03909279 1.6901227
-0.027792566 -0.0011255101 1.6642101
-0.10467839 -0.01966105 1.6816174
-0.1818101 -0.038458388 1.6901227
-0.027796324 -0.0010284891 1.6642101
-0.10446203 -0.019245701 1.6766257
-0.18194322 -0.037823521 1.6901227
-0.027799748 -0.00093145552 1.6642101
-0.10481311 -0.018929783 1.6816174
-0.18207414 -0.037188191 1.6901227
-0.027802829 -0.00083441078 1.6642101
-0.10487854 -0.018563803 1.6816174
-0.18220285 -0.036552407 1.6901227
-0.027805571 -0.00073735579 1.6642101
-0.10522757 -0.018244447 1.686609
-0.18232933 -0.035916176 1.6901227
-0.027807977 -0.00064029172 1.6642101
-0.10529061 -0.017877024 1.686609
-0.18245359 -0.035279509 1.6901227
-0.027810041 -0.00054321974 1.6642101
-0.18257563 -0.034642413 1.6901227
-0.027811769 -0.00044614123 1.6642101
-0.18269543 -0.034004893 1.6901227
-0.027813157 -0.00034905737 1.6642101
-0.18281302 -0.03336696 1.6901227
-0.027814206 -0.00025196932 1.6642101
-0.1824034 -0.032636147 1.6851511
-0.027814915 -0.00015487801 1.6642101
-0.1825162 -0.031999242 1.6851511
-0.027815286 -5.778484e-05 1.6642101
-0.1826268 -0.031361945 1.6851511
-0.02781532 3.9308798e-05 1.6642101
-0.10569596 -0.015299208 1.686609
-0.18326107 -0.030811239 1.6901227
-0.027815012 0.0001364022 1.6642101
-0.10574872 -0.014930166 1.686609
-0.18336751 -0.030171353 1.6901227
-0.027856901 0.00024321256 1.66921
-0.10580019 -0.014560945 1.686609
-0.18347171 -0.029531097 1.6901227
-0.027855884 0.00034044986 1.66921
-0.18357368 -0.028890481 1.6901227
-0.027854525 0.00043768319 1.66921
-0.18420047 -0.028329128 1.6950942
-0.02785283 0.00053491071 1.66921
-0.18429823 -0.027685978 1.6950942
-0.027850792 0.00063213194 1.66921
-0.18439376 -0.027042489 1.6950942
-0.027848415 0.00072934572 1.66921
-0.18395917 -0.026324576 1.6901227
-0.027845699 0.00082655018 1.66921
-0.18404993 -0.025682278 1.6901227
-0.027800359 0.00091298972 1.6642101
-0.18413845 -0.025039667 1.6901227
-0.027797002 0.0010100254 1.6642101
-0.18369609 -0.024328187 1.6851511
-0.027793309 0.0011070492 1.6642101
-0.1837799 -0.023686819 1.6851511
-0.027789272 0.001204059 1.6642101
-0.18386146 -0.023045162 1.6851511
-0.027784903 0.0013010544 1.6642101
-0.18394077 -0.022403227 1.6851511
-0.02778019 0.0013980339 1.6642101
-0.18401787 -0.021761017 1.6851511
-0.027775142 0.0014949967 1.6642101
-0.1840927 -0.021118542 1.6851511
-0.027769754 0.0015919404 1.6642101
-0.1841653 -0.020475809 1.6851511
-0.027764028 0.0016888655 1.6642101
-0.18423565 -0.019832829 1.6851511
-0.027757963 0.0017857694 1.6642101
-0.18430376 -0.019189604 1.6851511
-0.027751561 0.0018826523 1.6642101
-0.18436962 -0.018546147 1.6851511
-0.02774482 0.0019795122 1.6642101
-0.18496394 -0.017952539 1.6901227
-0.027695941 0.0020638304 1.6592103
-0.18502548 -0.017306784 1.6901227
-0.02768857 0.0021604947 1.6592103
-0.18508478 -0.016660819 1.6901227
-0.027680859 0.0022571329 1.6592103
-0.1851418 -0.016014652 1.6901227
-0.027672812 0.0023537432 1.6592103
-0.18519658 -0.015368288 1.6901227
-0.027664427 0.0024503251 1.6592103
-0.18524909 -0.014721738 1.6901227
-0.027655704 0.0025468771 1.6592103
-0.18529935 -0.014075009 1.6901227
-0.027688174 0.0026567876 1.6642101
-0.18534736 -0.013428108 1.6901227
-0.027678732 0.0027534207 1.6642101
-0.1853931 -0.012781043 1.6901227
-0.027668953 0.0028500208 1.6642101
-0.18490456 -0.012100443 1.6851511
-0.027658835 0.0029465859 1.6642101
-0.18494566 -0.011454932 1.6851511
-0.027648382 0.0030431156 1.6642101
-0.18498453 -0.010809282 1.6851511
-0.02763759 0.0031396078 1.6642101
-0.027626462 0.0032360619 1.6642101
-0.027615 0.0033324771 1.6642101
-0.027603198 0.0034288508 1.6642101
-0.027591061 0.0035251828 1.6642101
-0.027537551 0.0036066417 1.6592103
-0.18517032 -0.0069328872 1.6851511
-0.027524794 0.0037027434 1.6592103
-0.1851934 -0.00628648 1.6851511
-0.027511701 0.0037988008 1.6592103
-0.18521421 -0.0056399954 1.6851511
-0.027498271 0.0038948115 1.6592103
-0.027525336 0.0040061763 1.6642101
-0.027511183 0.0041022333 1.6642101
-0.027496696 0.0041982401 1.6642101
-0.027481873 0.0042941961 1.6642101
-0.027466716 0.0043900996 1.6642101
-0.18529171 -0.0017599252 1.6851511
-0.027451225 0.0044859499 1.6642101
-0.18529673 -0.0011131257 1.6851511
-0.0274354 0.0045817448 1.6642101
-0.18583256 -0.00046621956 1.6901227
-0.027419239 0.0046774843 1.6642101
-0.18583305 0.00018245992 1.6901227
-0.027402744 0.004773167 1.6642101
-0.18583128 0.00083113729 1.6901227
-0.027385917 0.0048687914 1.6642101
-0.18582724 0.0014798043 1.6901227
-0.027368754 0.0049643558 1.6642101
-0.18528792 0.0021209177 1.6851511
-0.027351256 0.0050598606 1.6642101
-0.18527938 0.0027676802 1.6851511
-0.027333429 0.0051553035 1.6642101
-0.18580155 0.0034256659 1.6901227
-0.027315266 0.0052506835 1.6642101
-0.18578847 0.0040742136 1.6901227
-0.027296774 0.0053459997 1.6642101
-0.18630596 0.0047376882 1.6950942
-0.027277946 0.0054412507 1.6642101
-0.18628828 0.0053879884 1.6950942
-0.027258785 0.0055364352 1.6642101
-0.18680106 0.0060569192 1.7000657
-0.027239293 0.0056315525 1.6642101
-0.10661347 0.0062663979 1.686609
-0.1867788 0.00670894 1.7000657
-0.027219471 0.005726601 1.6642101
-0.10601501 0.0065976307 1.6766257
-0.18675423 0.0073608789 1.7000657
-0.027199317 0.0058215796 1.6642101
-0.10627924 0.0069890968 1.6816174
-0.1867274 0.0080127278 1.7000657
-0.027178828 0.0059164879 1.6642101
-0.10625419 0.0073600383 1.6816174
-0.18616588 0.0086383466 1.6950942
-0.027158011 0.0060113235 1.6642101
-0.1062265 0.0077494299 1.6816174
-0.18613297 0.0093206204 1.6950942
-0.027133659 0.0061202943 1.6642101
-0.1061988 0.008120182 1.6816174
-0.18556708 0.0099403476 1.6901227
-0.027115382 0.0062007741 1.6642101
-0.10588372 0.0084468424 1.6766257
-0.18553311 0.010555657 1.6901227
-0.027093571 0.0062953867 1.6642101
-0.10584897 0.008871818 1.6766257
-0.18548924 0.011300348 1.6901227
-0.027064724 0.0064182682 1.6642101
-0.10580925 0.0093335854 1.6766257
-0.18543817 0.012109585 1.6901227
-0.027037602 0.0065315804 1.6642101
-0.10577262 0.0097397938 1.6766257
-0.18539031 0.012821527 1.6901227
-0.026975479 0.0066066752 1.6592103
-0.10573798 0.01010895 1.6766257
-0.18534443 0.013468581 1.6901227
-0.026952252 0.006700797 1.6592103
-0.10570205 0.010477982 1.6766257
-0.18529627 0.014115472 1.6901227
-0.026928697 0.0067948368 1.6592103
-0.10566484 0.010846888 1.6766257
-0.18524589 0.01476219 1.6901227
-0.026943773 0.0069084475 1.6642101
-0.10562633 0.011215662 1.6766257
-0.18519323 0.015408729 1.6901227
-0.026919492 0.0070024566 1.6642101
-0.10558654 0.011584297 1.6766257
-0.1851383 0.016055081 1.6901227
-0.026894886 0.0070963805 1.6642101
-0.10583203 0.011987776 1.6816174
-0.18508112 0.016701236 1.6901227
-0.026869951 0.0071902177 1.6642101
-0.10578953 0.012357125 1.6816174
-0.1850217 0.017347189 1.6901227
-0.026844688 0.0072839679 1.6642101
-0.10574576 0.012726325 1.6816174
-0.18496001 0.01799293 1.6901227
-0.026819099 0.0073776282 1.6642101
-0.10570069 0.013095369 1.6816174
-0.1848961 0.018638451 1.6901227
-0.026793184 0.0074712001 1.6642101
-0.10565433 0.013464252 1.6816174
-0.18482991 0.019283744 1.6901227
-0.026766941 0.0075646802 1.6642101
-0.10560669 0.013832974 1.6816174
-0.18476146 0.019928804 1.6901227
-0.026740372 0.0076580676 1.6642101
-0.10555776 0.014201526 1.6816174
-0.18469077 0.02057362 1.6901227
-0.026713476 0.0077513629 1.6642101
-0.10550755 0.014569903 1.6816174
-0.18461783 0.021218184 1.6901227
-0.026686257 0.0078445626 1.6642101
-0.10545605 0.014938106 1.6816174
-0.18454264 0.021862492 1.6901227
-0.026658714 0.0079376679 1.6642101
-0.10540326 0.015306125 1.6816174
-0.1844652 0.022506535 1.6901227
-0.026630841 0.0080306754 1.6642101
-0.10534918 0.015673958 1.6816174
-0.18438552 0.023150299 1.6901227
-0.026602648 0.008123586 1.6642101
-0.10529383 0.016041599 1.6816174
-0.18430358 0.023793785 1.6901227
-0.026574127 0.0082163969 1.6642101
-0.10523719 0.016409045 1.6816174
-0.18421941 0.02443698 1.6901227
-0.026545286 0.0083091073 1.6642101
-0.10517928 0.016776294 1.6816174
-0.18413298 0.025079876 1.6901227
-0.026516121 0.0084017171 1.6642101
-0.10512008 0.017143333 1.6816174
-0.18404433 0.025722466 1.6901227
-0.026486631 0.0084942244 1.6642101
-0.10505959 0.017510168 1.6816174
-0.18395342 0.026364746 1.6901227
-0.02645682 0.0085866284 1.6642101
-0.10499783 0.017876787 1.6816174
-0.18386026 0.027006702 1.6901227
-0.026426684 0.0086789271 1.6642101
-0.10493479 0.01824319 1.6816174
-0.18376486 0.027648332 1.6901227
-0.02639623 0.0087711215 1.6642101
-0.10487047 0.018609369 1.6816174
-0.18366723 0.02828962 1.6901227
-0.026365452 0.0088632079 1.6642101
-0.10480487 0.018975321 1.6816174
-0.18409368 0.029014964 1.6950942
-0.026334353 0.0089551862 1.6642101
-0.104738 0.019341042 1.6816174
-0.18399128 0.029657392 1.6950942
-0.026302934 0.0090470556 1.6642101
-0.10438661 0.019650651 1.6766257
-0.18388663 0.030299461 1.6950942
-0.026271194 0.0091388151 1.6642101
-0.10431737 0.02001491 1.6766257
-0.18377975 0.030941162 1.6950942
-0.026239131 0.0092304628 1.6642101
-0.10424688 0.020378925 1.6766257
-0.18367063 0.031582486 1.6950942
-0.02620675 0.0093219988 1.6642101
-0.10417511 0.020742688 1.6766257
-0.18303451 0.032129854 1.6901227
-0.026174054 0.0094134202 1.6642101
-0.10410207 0.0211062 1.6766257
-0.18292123 0.032768566 1.6901227
-0.026141033 0.009504728 1.6642101
-0.10402776 0.021469457 1.6766257
-0.18280573 0.03340688 1.6901227
-0.026107697 0.0095959185 1.6642101
-0.10395218 0.021832449 1.6766257
-0.182688 0.034044787 1.6901227
-0.026074041 0.0096869934 1.6642101
-0.10387534 0.022195179 1.6766257
-0.18256804 0.034682281 1.6901227
-0.02604007 0.0097779492 1.6642101
-0.10379723 0.022557637 1.6766257
-0.18244588 0.035319351 1.6901227
-0.026005778 0.0098687867 1.6642101
-0.10371786 0.022919819 1.6766257
-0.18232147 0.035955992 1.6901227
-0.026007611 0.0099835033 1.66921
-0.10363723 0.023281723 1.6766257
-0.18219486 0.036592193 1.6901227
-0.025972605 0.010074226 1.66921
-0.10383621 0.02371005 1.6816174
-0.18206602 0.037227947 1.6901227
-0.025937282 0.010164826 1.66921
-0.10375281 0.02407236 1.6816174
-0.18193497 0.037863247 1.6901227
-0.02590164 0.010255302 1.66921
-0.10366815 0.024434378 1.6816174
-0.18180169 0.038498092 1.6901227
-0.025865685 0.010345653 1.66921
-0.10358223 0.024796098 1.6816174
-0.1816662 0.039132465 1.6901227
-0.025829414 0.010435878 1.66921
-0.10349504 0.025157519 1.6816174
-0.18152849 0.039766356 1.6901227
-0.025756899 0.010501219 1.6642101
-0.10312692 0.02544703 1.6766257
-0.18138857 0.040399767 1.6901227
-0.025720086 0.010591063 1.6642101
-0.10303746 0.025806854 1.6766257
-0.18124644 0.041032691 1.6901227
-0.02568296 0.010680778 1.6642101
-0.10294676 0.026166365 1.6766257
-0.18110211 0.041665103 1.6901227
-0.025645521 0.010770364 1.6642101
-0.10285479 0.026525557 1.6766257
-0.18095556 0.042297013 1.6901227
-0.02560777 0.010859818 1.6642101
-0.10304022 0.026959926 1.6816174
-0.18080682 0.042928413 1.6901227
-0.025569707 0.010949139 1.6642101
-0.10294548 0.027319437 1.6816174
