# .PCD v0.7 - Point Cloud Data file format
VERSION 0.7
FIELDS x y z
SIZE 4 4 4
TYPE F F F
COUNT 1 1 1
WIDTH 1444
HEIGHT 1
VIEWPOINT 0 0 0 1 0 0 0
POINTS 1444
DATA ascii
0.20629418 -0.46702448 0.26683846
0.19794811 -0.45067349 0.28719237
0.20466271 -0.46774173 0.26683846
0.19637375 -0.45136169 0.28719237
0.20302874 -0.46845329 0.26683846
0.19479701 -0.45204443 0.28719237
0.20139229 -0.46915913 0.26683846
0.1932179 -0.45272163 0.28719237
0.19790603 -0.46551344 0.26519495
0.18983175 -0.44912311 0.28531936
0.19627987 -0.46620142 0.26519495
0.18826285 -0.44978306 0.28531936
0.19465131 -0.46688375 0.26519495
0.18669167 -0.45043746 0.28531936
0.19121866 -0.46319547 0.26355144
0.18511821 -0.45108637 0.28531936
0.18960065 -0.46386012 0.26355144
0.18354249 -0.4517298 0.28531936
0.18798029 -0.46451911 0.26355144
0.18196456 -0.45236772 0.28531936
0.1803844 -0.45300013 0.28531936
0.17880203 -0.45362705 0.28531936
0.17721748 -0.45424843 0.28531936
0.17563078 -0.45486429 0.28531936
0.17404193 -0.45547453 0.28531936
0.17081153 -0.45174295 0.28344631
0.16923361 -0.45233643 0.28344631
0.16765362 -0.4529244 0.28344631
0.16607159 -0.45350686 0.28344631
0.16448756 -0.4540838 0.28344631
0.16290151 -0.4546552 0.28344631
0.16131347 -0.45522106 0.28344631
0.15972348 -0.45578137 0.28344631
0.15813152 -0.45633617 0.28344631
0.15653764 -0.45688537 0.28344631
0.15494187 -0.45742899 0.28344631
0.1533442 -0.45796701 0.28344631
0.15174468 -0.45849955 0.28344631
0.15014328 -0.45902643 0.28344631
0.14854005 -0.45954773 0.28344631
0.14693505 -0.46006343 0.28344631
0.14532821 -0.46057352 0.28344631
0.14371963 -0.46107802 0.28344631
0.14210929 -0.46157688 0.28344631
0.14049721 -0.46207011 0.28344631
0.13888344 -0.46255773 0.28344631
0.13858542 -0.46748447 0.28531936
0.13695276 -0.46796542 0.28531936
0.13531841 -0.46844059 0.28531936
0.13368241 -0.4689101 0.28531936
0.13204481 -0.46937388 0.28531936
0.13164526 -0.47429901 0.28719237
0.12998883 -0.47475564 0.28719237
0.11334092 -0.47900298 0.28719237
0.11166819 -0.47939572 0.28719237
0.10999411 -0.47978255 0.28719237
0.10831869 -0.4801636 0.28719237
0.10563776 -0.47601295 0.28531936
0.10397553 -0.4763788 0.28531936
0.10231202 -0.47673887 0.28531936
0.10064727 -0.47709307 0.28531936
0.098981284 -0.47744149 0.28531936
0.097314097 -0.47778407 0.28531936
0.095645741 -0.47812086 0.28531936
0.0939762 -0.47845179 0.28531936
0.092305519 -0.4787769 0.28531936
0.090633713 -0.4790962 0.28531936
0.088960797 -0.47940966 0.28531936
0.087286808 -0.47971728 0.28531936
0.085611753 -0.48001906 0.28531936
0.083137795 -0.47574821 0.28344631
0.081476621 -0.47603551 0.28344631
0.079814449 -0.47631705 0.28344631
0.078151301 -0.47659272 0.28344631
0.076487213 -0.47686264 0.28344631
0.074822187 -0.47712672 0.28344631
0.073858283 -0.48196745 0.28531936
0.072175451 -0.48222232 0.28531936
0.070491746 -0.48247132 0.28531936
0.06880717 -0.48271444 0.28531936
0.067759745 -0.48754346 0.28719237
0.065435544 -0.48318306 0.28531936
0.064208575 -0.49222097 0.26190794
-0.011214088 0.12027905 1.0835993
-0.010885045 0.12137969 1.0935423
-0.010461285 0.12141695 1.0935423
-0.010120857 0.12251556 1.1034852
-0.0097728865 0.12361327 1.1134282
-0.0084778992 0.12370883 1.1134282
-0.0080135744 0.1232056 1.1084567
-0.0075222733 0.12216847 1.0985137
-0.0070670452 0.12166169 1.0935423
-0.0066154483 0.12115326 1.0885708
-0.0061674872 0.12064315 1.0835993
-0.0057463264 0.12066394 1.0835993
-0.0053250957 0.12068326 1.0835993
-0.0049037999 0.12070111 1.0835993
-0.0044824444 0.1207175 1.0835993
-0.0040610344 0.12073241 1.0835993
-0.0036257138 0.12021296 1.0786277
-0.0032060703 0.12022489 1.0786277
0.0030745012 0.1196951 1.0736562
0.0035100628 0.1202164 1.0786277
0.0039296751 0.12020341 1.0786277
0.0043492392 0.12018896 1.0786277
0.0047687502 0.12017304 1.0786277
0.0051882039 0.12015567 1.0786277
0.0056075938 0.12013683 1.0786277
0.0060269153 0.12011652 1.0786277
0.0064461632 0.12009475 1.0786277
0.0068653333 0.12007152 1.0786277
0.0072844187 0.12004682 1.0786277
0.0077034165 0.12002067 1.0786277
0.0081223203 0.11999304 1.0786277
0.0085411239 0.11996396 1.0786277
0.0089598252 0.11993341 1.0786277
0.0093784155 0.11990141 1.0786277
0.0097968923 0.11986794 1.0786277
0.010215251 0.11983301 1.0786277
0.010633483 0.11979663 1.0786277
0.011051587 0.11975878 1.0786277
0.011469555 0.11971947 1.0786277
0.011887385 0.11967871 1.0786277
0.012305069 0.11963648 1.0786277
0.012722603 0.1195928 1.0786277
0.013139983 0.11954767 1.0786277
0.013557201 0.11950107 1.0786277
0.013974255 0.11945301 1.0786277
0.014391139 0.1194035 1.0786277
0.014807847 0.11935254 1.0786277
0.015224375 0.11930013 1.0786277
0.015640719 0.11924626 1.0786277
0.016056869 0.11919093 1.0786277
0.016472826 0.11913416 1.0786277
0.016888581 0.11907593 1.0786277
0.017304132 0.11901626 1.0786277
0.01771947 0.11895513 1.0786277
0.018134592 0.11889255 1.0786277
0.018549494 0.11882852 1.0786277
0.01896417 0.11876305 1.0786277
0.019290544 0.11817041 1.0736562
0.019702919 0.11810234 1.0736562
0.020023312 0.11750775 1.0686847
0.02043337 0.11743714 1.0686847
0.020843176 0.11736509 1.0686847
0.021349963 0.11781574 1.0736562
0.02176109 0.1177405 1.0736562
0.022171948 0.11766382 1.0736562
0.022582535 0.1175857 1.0736562
0.022888307 0.11698346 1.0686847
0.023296516 0.11690284 1.0686847
0.023704439 0.11682082 1.0686847
0.024112076 0.11673737 1.0686847
0.024519419 0.11665249 1.0686847
0.024926463 0.11656619 1.0686847
0.025333202 0.11647847 1.0686847
0.025856916 0.11690933 1.0736562
0.02626485 0.11681835 1.0736562
0.026672458 0.11672596 1.0736562
0.026957028 0.1161134 1.0686847
0.027362175 0.1160186 1.0686847
0.027766988 0.11592238 1.0686847
0.028171465 0.11582474 1.0686847
0.028575595 0.1157257 1.0686847
0.02897938 0.11562525 1.0686847
0.029516369 0.11603945 1.0736562
0.029921241 0.11593571 1.0736562
0.030325748 0.11583056 1.0736562
0.03072989 0.115724 1.0736562
0.031133654 0.11561602 1.0736562
0.031537041 0.11550664 1.0736562
0.031940043 0.11539586 1.0736562
0.032342654 0.11528366 1.0736562
0.03274487 0.11517006 1.0736562
0.03299699 0.11454345 1.0686847
0.03339662 0.11442757 1.0686847
0.033795841 0.11431029 1.0686847
0.034194652 0.11419164 1.0686847
0.034593049 0.11407158 1.0686847
0.034991022 0.11395013 1.0686847
0.035388567 0.1138273 1.0686847
0.035785686 0.11370307 1.0686847
0.036182363 0.11357747 1.0686847
0.036578607 0.11345047 1.0686847
0.036974397 0.1133221 1.0686847
0.022704484 0.064525835 1.0227185
0.037369739 0.11319233 1.0686847
0.022907086 0.064454183 1.0227185
0.037725158 0.11307438 1.0686847
0.023075748 0.064393997 1.0227185
0.038193192 0.11347973 1.0736562
0.023266707 0.064325251 1.0227185
0.03870336 0.11386989 1.0786277
0.039276004 0.11423749 1.0835993
0.039851673 0.11460244 1.0885708
0.040072568 0.1139605 1.0835993
0.040289462 0.11331841 1.0786277
0.039955158 0.11117358 1.0587418
0.024716221 0.064091809 1.0277102
0.040895432 0.11253414 1.0736562
0.024831366 0.063737586 1.0227185
0.04054442 0.11039234 1.0537703
0.024834981 0.063116163 1.0127351
0.041492429 0.11174696 1.0686847
0.024944855 0.062762298 1.0077435
0.025163785 0.062674843 1.0077435
0.025270257 0.062320609 1.0027518
0.025487645 0.062232021 1.0027518
0.025704719 0.06214267 1.0027518
0.043043729 0.11001462 1.0587418
0.02580655 0.061787739 0.99776018
0.043229442 0.1093688 1.0537703
0.026022071 0.061697278 0.99776018
0.044010494 0.11020564 1.0637132
0.026237277 0.061606072 0.99776018
0.044596408 0.11054485 1.0686847
0.026452163 0.061514109 0.99776018
0.044778798 0.10989571 1.0637132
0.026666725 0.061421398 0.99776018
0.045367066 0.11023082 1.0686847
0.026880965 0.061327942 0.99776018
0.045751568 0.11007179 1.0686847
0.027094875 0.06123374 0.99776018
0.046135511 0.10991141 1.0686847
0.027429823 0.061400726 1.0027518
0.046518892 0.1097497 1.0686847
0.027643984 0.061304603 1.0027518
0.046901703 0.10958665 1.0686847
0.027857807 0.061207734 1.0027518
0.047283951 0.10942227 1.0686847
0.028071292 0.061110117 1.0027518
0.047665615 0.10925654 1.0686847
0.028159425 0.060751539 0.99776018
0.048046704 0.10908949 1.0686847
0.028371315 0.060652874 0.99776018
0.048427202 0.10892112 1.0686847
0.028582862 0.060553469 0.99776018
0.048586823 0.10826601 1.0637132
0.028794058 0.060453329 0.99776018
0.048964445 0.10809574 1.0637132
0.029004904 0.060352452 0.99776018
0.049117792 0.10744031 1.0587418
0.029215395 0.060250837 0.99776018
0.049267169 0.10678513 1.0537703
0.029425532 0.060148489 0.99776018
0.04963962 0.10661251 1.0537703
0.029503977 0.05978832 0.99276853
0.050011467 0.10643858 1.0537703
0.029712498 0.059684966 0.99276853
0.050382696 0.10626337 1.0537703
0.029920656 0.059580889 0.99276853
0.050753321 0.10608685 1.0537703
0.030128451 0.059476081 0.99276853
0.051123325 0.10590903 1.0537703
0.030335877 0.059370551 0.99276853
0.051492706 0.10572994 1.0537703
0.030542936 0.059264299 0.99276853
0.051861454 0.10554955 1.0537703
0.030749621 0.059157323 0.99276853
0.052229576 0.10536788 1.0537703
0.030955929 0.059049629 0.99276853
0.052597061 0.10518493 1.0537703
0.031161863 0.058941208 0.99276853
0.052963905 0.10500068 1.0537703
0.031367414 0.058832072 0.99276853
0.053330105 0.10481517 1.0537703
0.031572588 0.058722224 0.99276853
0.053695653 0.10462837 1.0537703
0.031777374 0.058611654 0.99276853
0.054060545 0.10444029 1.0537703
0.031981774 0.058500379 0.99276853
0.054424781 0.10425096 1.0537703
0.032185785 0.058388382 0.99276853
0.054788355 0.10406034 1.0537703
0.032389399 0.058275677 0.99276853
0.055151254 0.10386845 1.0537703
0.032592624 0.058162265 0.99276853
0.055513486 0.10367531 1.0537703
0.032795448 0.058048137 0.99276853
0.055875048 0.10348091 1.0537703
0.032851528 0.057684463 0.98777688
0.056492805 0.10375232 1.0587418
0.033052683 0.057569437 0.98777688
0.056854621 0.10355448 1.0587418
0.033253435 0.057453711 0.98777688
0.056955613 0.10289012 1.0537703
0.033453785 0.057337284 0.98777688
0.057314418 0.10269068 1.0537703
0.033653725 0.057220161 0.98777688
0.057672527 0.10248999 1.0537703
0.033853255 0.057102337 0.98777688
0.058029935 0.10228805 1.0537703
0.058120023 0.10162327 1.0487988
0.058474399 0.10141978 1.0487988
0.058828063 0.10121504 1.0487988
0.059452437 0.10146786 1.0537703
0.059806269 0.10125971 1.0537703
0.034885898 0.0561378 0.98278522
0.059884742 0.10059346 1.0487988
0.035081647 0.056015681 0.98278522
0.060235515 0.10038381 1.0487988
0.035276961 0.055892885 0.98278522
0.060585547 0.10017294 1.0487988
0.035471849 0.055769403 0.98278522
0.06065546 0.099506877 1.0438273
0.035666306 0.055645242 0.98278522
0.061002433 0.099294543 1.0438273
0.035860326 0.055520404 0.98278522
0.061348662 0.099081002 1.0438273
0.036053907 0.055394895 0.98278522
0.061694149 0.098866254 1.0438273
0.036247052 0.055268701 0.98278522
0.06203888 0.098650292 1.0438273
0.036439758 0.05514184 0.98278522
0.062382858 0.098433137 1.0438273
0.036632016 0.055014305 0.98278522
0.062726073 0.098214783 1.0438273
0.036823831 0.054886103 0.98278522
0.063068517 0.097995229 1.0438273
0.037015192 0.054757226 0.98278522
0.063410208 0.097774483 1.0438273
0.037206102 0.054627687 0.98278522
0.063751116 0.097552545 1.0438273
0.095497459 0.14824603 1.1216357
0.037396565 0.05449748 0.98278522
0.064091243 0.097329415 1.0438273
0.094741397 0.14595906 1.1068178
0.03758657 0.054366611 0.98278522
0.064430602 0.097105108 1.0438273
0.037776116 0.054235075 0.98278522
0.064471014 0.096437737 1.0388558
0.097044624 0.14723788 1.1216357
0.037965201 0.054102883 0.98278522
0.064807244 0.096212097 1.0388558
0.096695758 0.14560537 1.1117572
0.038153823 0.053970031 0.98278522
0.065142691 0.095985293 1.0388558
0.096770063 0.14462203 1.1068178
0.03834198 0.053836521 0.98278522
0.065477341 0.095757321 1.0388558
0.096838683 0.14363997 1.1018786
0.038529672 0.053702354 0.98278522
0.065811202 0.09552817 1.0388558
0.096901633 0.14265919 1.0969393
0.038716894 0.053567532 0.98278522
0.066144258 0.095297873 1.0388558
0.097399019 0.14232007 1.0969393
0.038903642 0.053432062 0.98278522
0.066476509 0.095066398 1.0388558
0.097895212 0.1419792 1.0969393
0.039089918 0.053295933 0.98278522
0.066807948 0.094833784 1.0388558
0.098390214 0.14163662 1.0969393
0.039275721 0.053159162 0.98278522
0.067138575 0.094599992 1.0388558
0.098884016 0.14129232 1.0969393
0.039461039 0.053021736 0.98278522
0.067468375 0.094365068 1.0388558
0.099376619 0.14094628 1.0969393
0.039469495 0.052655131 0.97779357
0.067797363 0.094128981 1.0388558
0.099868007 0.14059854 1.0969393
0.039653055 0.052517034 0.97779357
0.068125524 0.093891755 1.0388558
0.099904768 0.13961808 1.0920001
0.039836131 0.052378297 0.97779357
0.06845285 0.093653373 1.0388558
0.10039151 0.1392685 1.0920001
0.13454847 0.18851581 1.1369534
0.040018722 0.052238926 0.97779357
0.068461448 0.092985973 1.0338843
0.10087705 0.13891722 1.0920001
0.04020083 0.052098915 0.97779357
0.068466231 0.092319652 1.0289128
0.10136133 0.13856426 1.0920001
0.040382445 0.051958274 0.97779357
0.068467192 0.091654435 1.0239413
0.10184439 0.13820958 1.0920001
0.040744696 0.052041791 0.98278522
0.068786711 0.091414884 1.0239413
0.10232622 0.13785325 1.0920001
0.13656351 0.18579909 1.1320581
0.040926106 0.051899251 0.98278522
0.069105387 0.091174215 1.0239413
0.10234027 0.13687387 1.0870609
0.13721123 0.18532126 1.1320581
0.041107018 0.051756073 0.98278522
0.069748536 0.09135472 1.0289128
0.10281743 0.13651581 1.0870609
0.1378573 0.18484116 1.1320581
0.04128743 0.051612265 0.98278522
0.070067003 0.091110691 1.0289128
0.10282248 0.13553798 1.0821216
0.041283086 0.051245585 0.97779357
0.070384614 0.090865567 1.0289128
0.10329496 0.13517824 1.0821216
0.13852903 0.183063 1.1271629
0.041461721 0.05110117 0.97779357
0.071031079 0.091038167 1.0338843
0.10329103 0.13420206 1.0771824
0.041639842 0.05095613 0.97779357
0.071348429 0.090789661 1.0338843
0.10375886 0.1338407 1.0771824
0.041817456 0.050810471 0.97779357
0.071997546 0.090956591 1.0388558
0.10374597 0.13286625 1.0722431
0.041994564 0.05066419 0.97779357
0.072648689 0.091120094 1.0438273
0.10420914 0.13250329 1.0722431
0.042171162 0.050517291 0.97779357
0.072966322 0.090865947 1.0438273
0.10467102 0.13213871 1.0722431
0.04253611 0.05058812 0.98278522
0.073283054 0.09061069 1.0438273
0.10561745 0.13237895 1.0771824
0.042712435 0.050439332 0.98278522
0.073598891 0.090354331 1.0438273
0.10607889 0.13200946 1.0771824
0.042888239 0.050289933 0.98278522
0.073573984 0.0896862 1.0388558
0.10653905 0.13163838 1.0771824
0.04287238 0.049923565 0.97779357
0.073545322 0.089019358 1.0338843
0.10650577 0.13066441 1.0722431
0.043046385 0.049773611 0.97779357
0.073512904 0.08835382 1.0289128
0.10696122 0.13029183 1.0722431
0.14354694 0.17653835 1.1173724
0.043219864 0.04962305 0.97779357
0.073820859 0.088096678 1.0289128
0.10741538 0.12991768 1.0722431
0.1441623 0.17603619 1.1173724
0.043392822 0.049471878 0.97779357
0.074127927 0.087838456 1.0289128
0.10786822 0.12954193 1.0722431
0.043565243 0.049320109 0.97779357
0.074434094 0.087579161 1.0289128
0.10831974 0.12916462 1.0722431
0.04373714 0.049167737 0.97779357
0.074739344 0.087318808 1.0289128
0.10876995 0.12878571 1.0722431
0.043908499 0.049014766 0.97779357
0.075043693 0.087057382 1.0289128
0.10921884 0.12840526 1.0722431
0.044079326 0.048861202 0.97779357
0.075698301 0.087195918 1.0338843
0.10966638 0.12802324 1.0722431
0.044249617 0.048707038 0.97779357
0.07600221 0.086931154 1.0338843
0.10960387 0.12705237 1.0673038
0.044419363 0.048552278 0.97779357
0.076305196 0.086665325 1.0338843
0.1100467 0.12666899 1.0673038
0.04458857 0.04839693 0.97779357
0.07660725 0.086398438 1.0338843
0.11048819 0.12628409 1.0673038
0.04475724 0.048240993 0.97779357
0.076908372 0.086130507 1.0338843
0.11092833 0.12589765 1.0673038
0.044925358 0.048084468 0.97779357
0.077208549 0.085861519 1.0338843
0.11136711 0.12550966 1.0673038
0.04489217 0.047719896 0.97280192
0.077148288 0.085197911 1.0289128
0.11180455 0.12512016 1.0673038
0.04505847 0.047562905 0.97280192
0.077445216 0.084928103 1.0289128
0.11224061 0.12472913 1.0673038
0.15005066 0.1683263 1.107582
0.04522422 0.047405329 0.97280192
0.077741198 0.084657244 1.0289128
0.11215238 0.12376187 1.0623646
0.15063731 0.16780151 1.107582
0.045389425 0.047247179 0.97280192
0.078036226 0.084385373 1.0289128
0.11258372 0.12336963 1.0623646
0.15122212 0.16727467 1.107582
0.045554068 0.047088452 0.97280192
0.078330316 0.08411245 1.0289128
0.11248674 0.12240487 1.0574253
0.15249142 0.16749792 1.1124772
0.045718163 0.046929151 0.97280192
0.078623444 0.083838522 1.0289128
0.11291333 0.12201147 1.0574253
0.15307517 0.16696462 1.1124772
0.046086755 0.046972491 0.97779357
0.078915611 0.083563559 1.0289128
0.11333854 0.12161659 1.0574253
0.15365706 0.16642927 1.1124772
0.046250436 0.046811327 0.97779357
0.079206824 0.083287582 1.0289128
0.11376238 0.12122022 1.0574253
0.15423706 0.16589189 1.1124772
0.046413556 0.046649598 0.97779357
0.079497077 0.083010592 1.0289128
0.11418482 0.12082238 1.0574253
0.15551195 0.16609497 1.1173724
0.046576113 0.046487302 0.97779357
0.079414658 0.0823505 1.0239413
0.11460587 0.12042306 1.0574253
0.15609078 0.16555113 1.1173724
0.046738103 0.046324439 0.97779357
0.079701632 0.082072787 1.0239413
0.11502553 0.12002228 1.0574253
0.15666771 0.16500525 1.1173724
0.04689952 0.046161011 0.97779357
0.07998763 0.081794083 1.0239413
0.11544378 0.11962003 1.0574253
0.15653825 0.16372222 1.1124772
0.047060363 0.04599702 0.97779357
0.080272652 0.081514373 1.0239413
0.11586063 0.11921634 1.0574253
0.15710878 0.16317481 1.1124772
0.04722064 0.045832466 0.97779357
0.080556713 0.081233673 1.0239413
0.11627606 0.11881118 1.0574253
0.15767741 0.1626254 1.1124772
0.047380336 0.045667358 0.97779357
0.080839776 0.080951974 1.0239413
0.11669008 0.11840457 1.0574253
0.15824413 0.16207401 1.1124772
0.047328111 0.045305025 0.97280192
0.081121862 0.080669299 1.0239413
0.11710269 0.11799652 1.0574253
0.1588089 0.16152066 1.1124772
0.04748597 0.045139544 0.97280192
0.08140295 0.080385648 1.0239413
0.11751385 0.11758704 1.0574253
0.15865454 0.16024259 1.107582
0.047643248 0.044973515 0.97280192
0.081683047 0.080101006 1.0239413
0.1179236 0.11717612 1.0574253
0.15921292 0.1596878 1.107582
0.047799945 0.044806935 0.97280192
0.081962161 0.079815388 1.0239413
0.11777771 0.11621917 1.0524861
0.15976937 0.15913107 1.107582
0.047741991 0.044446107 0.96781027
0.082240269 0.079528801 1.0239413
0.11818267 0.11580734 1.0524861
0.16032386 0.15857239 1.107582
0.047896847 0.044279188 0.96781027
0.082517371 0.079241246 1.0239413
0.11858618 0.11539409 1.0524861
0.16087641 0.15801179 1.107582
0.048051115 0.044111729 0.96781027
0.082793474 0.078952722 1.0239413
0.11898827 0.11497945 1.0524861
0.1606973 0.15673916 1.1026868
0.048204802 0.043943729 0.96781027
0.083068565 0.078663245 1.0239413
0.11938889 0.11456341 1.0524861
0.16124342 0.15617728 1.1026868
0.0483579 0.043775193 0.96781027
0.08295273 0.078009322 1.0189698
0.11978807 0.11414596 1.0524861
0.16105294 0.15490846 1.0977916
0.04851041 0.043606125 0.96781027
0.083224535 0.077719294 1.0189698
0.12018578 0.11372714 1.0524861
0.16159269 0.15434533 1.0977916
0.048880402 0.043625697 0.97280192
0.083495319 0.077428311 1.0189698
0.12058203 0.11330692 1.0524861
0.16139092 0.15308048 1.0928963
0.04903239 0.043454811 0.97280192
0.083765082 0.077136382 1.0189698
0.12097681 0.11288531 1.0524861
0.16192427 0.15251619 1.0928963
0.049183778 0.043283392 0.97280192
0.083638869 0.076485515 1.0139982
0.12137011 0.11246233 1.0524861
0.16171123 0.15125535 1.0880011
0.049334563 0.043111444 0.97280192
0.083905339 0.076193094 1.0139982
0.12118907 0.11151306 1.0475469
0.16223824 0.15068997 1.0880011
0.049484752 0.04293897 0.97280192
0.084170789 0.07589975 1.0139982
0.20670897 0.19250117 1.1250674
0.12157759 0.11108934 1.0475469
0.16201401 0.14943328 1.0831059
0.049412992 0.042580638 0.96781027
0.084435225 0.075605474 1.0139982
0.20830315 0.1926312 1.1299068
0.12196462 0.11066429 1.0475469
0.16253464 0.14886683 1.0831059
0.049561322 0.042407896 0.96781027
0.084698617 0.075310282 1.0139982
0.20990071 0.19275244 1.1347462
0.12235018 0.11023787 1.0475469
0.16305329 0.14829858 1.0831059
0.049709052 0.042234637 0.96781027
0.08455985 0.074663118 1.0090266
0.21150166 0.19286484 1.1395856
0.12273423 0.10981011 1.0475469
0.16356997 0.1477285 1.0831059
0.049856178 0.042060863 0.96781027
0.084819958 0.074367501 1.0090266
0.21310595 0.19296843 1.144425
0.12311678 0.10938103 1.0475469
0.16332582 0.1464777 1.0782107
0.050002694 0.041886572 0.96781027
0.085079029 0.074070975 1.0090266
0.21471353 0.19306317 1.1492646
0.12349785 0.10895061 1.0475469
0.16383612 0.1459067 1.0782107
0.050148599 0.041711777 0.96781027
0.085337065 0.073773533 1.0090266
0.21632433 0.19314899 1.154104
0.12329189 0.10800807 1.0426075
0.16434443 0.14533392 1.0782107
0.050293893 0.041536469 0.96781027
0.085594065 0.073475197 1.0090266
0.21699725 0.19239271 1.154104
0.12366816 0.10757706 1.0426075
0.16485074 0.14475936 1.0782107
0.050438575 0.041360661 0.96781027
0.085850023 0.073175982 1.0090266
0.12404293 0.10714471 1.0426075
0.16612327 0.14485131 1.0831059
0.050582644 0.041184343 0.96781027
0.086104929 0.072875857 1.0090266
0.12441617 0.10671107 1.0426075
0.1666027 0.14429964 1.0831059
0.050690293 0.041051779 0.96781027
0.086295418 0.072650187 1.0090266
0.12462081 0.10647201 1.0426075
0.16690455 0.14395039 1.0831059
0.050826147 0.040883459 0.96781027
0.086548492 0.07234852 1.0090266
0.21759307 0.18789414 1.144425
0.12515812 0.10583989 1.0426075
0.167631 0.14310378 1.0831059
0.051011145 0.040652394 0.96781027
0.086863346 0.071970195 1.0090266
0.21745533 0.18612626 1.1395856
0.12493071 0.10490395 1.0376683
0.1681295 0.14251775 1.0831059
0.05115274 0.040474087 0.96781027
0.087114051 0.071666546 1.0090266
0.21618699 0.18373941 1.1299068
0.12529615 0.10446723 1.0376683
0.16862597 0.14193001 1.0831059
0.051043168 0.040146913 0.96281862
0.08691214 0.071072146 1.0040551
0.21480963 0.18147619 1.1202279
0.12497009 0.1036441 1.032729
0.16899696 0.14148806 1.0831059
0.051148102 0.040013142 0.96281862
0.087097913 0.070844367 1.0040551
0.21335821 0.17929727 1.1105491
0.125241 0.10331657 1.032729
0.16936679 0.14104515 1.0831059
0.051273551 0.039852258 0.96281862
0.087320052 0.070570394 1.0040551
0.212955 0.17782116 1.1057097
0.12561883 0.10285684 1.032729
0.16988263 0.14042343 1.0831059
0.051440034 0.039637133 0.96281862
0.087627143 0.070188716 1.0040551
0.12613782 0.10221971 1.032729
0.17059119 0.13956179 1.0831059
0.051619373 0.039403301 0.96281862
0.087932557 0.069805704 1.0040551
0.12588748 0.10129296 1.0277898
0.17105305 0.13899532 1.0831059
0.051722355 0.039268028 0.96281862
0.088115007 0.069575258 1.0040551
0.12727855 0.1020426 1.0376683
0.17131959 0.13866666 1.0831059
0.051824979 0.039132483 0.96281862
0.08829686 0.069344334 1.0040551
0.17100815 0.13743089 1.0782107
0.051961262 0.038951345 0.96281862
0.088538378 0.069035694 1.0040551
0.12798783 0.10115156 1.0376683
0.17148684 0.13683312 1.0782107
0.052096911 0.038769726 0.96281862
0.088778816 0.068726227 1.0040551
0.21466818 0.1717533 1.0960308
0.17196342 0.1362337 1.0782107
0.052231923 0.038587637 0.96281862
0.089018181 0.06841591 1.0040551
0.21526641 0.17100292 1.0960308
0.17243792 0.13563259 1.0782107
0.052366301 0.038405076 0.96281862
0.089256451 0.068104759 1.0040551
0.21586199 0.17025048 1.0960308
0.17291032 0.13502985 1.0782107
0.052500043 0.038222052 0.96281862
0.089067303 0.067472801 0.9990837
0.21645497 0.16949593 1.0960308
0.17257519 0.13380252 1.0733155
0.052633137 0.038038559 0.96281862
0.089302287 0.067161486 0.9990837
0.21704529 0.16873933 1.0960308
0.17304119 0.1331993 1.0733155
0.0527656 0.037854604 0.96281862
0.089107625 0.066532351 0.99411219
0.21763298 0.16798067 1.0960308
0.13007812 0.098448992 1.0376683
0.17269535 0.13197716 1.0684203
0.052897416 0.037670188 0.96281862
0.089339316 0.066220909 0.99411219
0.21821803 0.16721995 1.0960308
0.12917665 0.097063452 1.0277898
0.17315498 0.13137352 1.0684203
0.053028587 0.037485309 0.96281862
0.089569926 0.065908641 0.99411219
0.21880041 0.16645724 1.0960308
0.12826709 0.095685422 1.0179113
0.17279847 0.13015667 1.063525
0.053159114 0.037299979 0.96281862
0.089799441 0.06559559 0.99411219
0.21938011 0.16569246 1.0960308
0.12860031 0.095237099 1.0179113
0.17325175 0.12955269 1.063525
0.053288985 0.037114192 0.96281862
0.090027869 0.065281734 0.99411219
0.21995714 0.16492566 1.0960308
0.12893197 0.094787627 1.0179113
0.17370293 0.12894714 1.063525
0.053418215 0.036927953 0.96281862
0.090255193 0.064967081 0.99411219
0.22053152 0.16415685 1.0960308
0.12926206 0.094336987 1.0179113
0.17415197 0.12834002 1.063525
0.053546794 0.036741264 0.96281862
0.090481423 0.064651631 0.99411219
0.22110318 0.16338606 1.0960308
0.12959057 0.093885206 1.0179113
0.1745989 0.12773134 1.063525
0.05367472 0.036554124 0.96281862
0.09070655 0.064335398 0.99411219
0.22268623 0.16335601 1.1008703
0.1299175 0.093432285 1.0179113
0.17421913 0.12652375 1.0586298
0.053801991 0.036366545 0.96281862
0.090493329 0.063713476 0.98914069
0.2232551 0.16257769 1.1008703
0.13024285 0.092978209 1.0179113
0.17465971 0.12591484 1.0586298
0.053928606 0.036178522 0.96281862
0.090715185 0.063397206 0.98914069
0.22585966 0.16326864 1.1105491
0.1305666 0.092523009 1.0179113
0.17509817 0.1253044 1.0586298
0.054054562 0.035990052 0.96281862
0.090935923 0.063080162 0.98914069
0.22540641 0.16174717 1.1057097
0.13088879 0.09206669 1.0179113
0.1755345 0.12469243 1.0586298
0.054179862 0.035801146 0.96281862
0.091155566 0.062762357 0.98914069
0.22289665 0.1587739 1.0911914
0.13057134 0.091165796 1.012972
0.17596869 0.12407894 1.0586298
0.054304503 0.035611808 0.96281862
0.091374099 0.062443785 0.98914069
0.13088877 0.090709463 1.012972
0.17640074 0.12346394 1.0586298
0.054428481 0.035422031 0.96281862
0.09203399 0.062421676 0.99411219
0.13120459 0.090252019 1.012972
0.17683062 0.12284744 1.0586298
0.054551795 0.035231825 0.96281862
0.092251331 0.062100038 0.99411219
0.13087618 0.089356735 1.0080327
0.17641944 0.12165242 1.0537345
0.27417016 0.19104707 1.1154745
0.054674447 0.035041191 0.96281862
0.092467539 0.061777636 0.99411219
0.13118729 0.088899344 1.0080327
0.176843 0.12103587 1.0537345
0.27729157 0.19178583 1.1250185
0.054796424 0.034850128 0.96281862
0.092682622 0.06145449 0.99411219
0.13149682 0.08844088 1.0080327
0.17726442 0.12041782 1.0537345
0.27795932 0.19081673 1.1250185
0.054917738 0.034658637 0.96281862
0.092896573 0.061130591 0.99411219
0.13180473 0.087981336 1.0080327
0.17768368 0.11979832 1.0537345
0.2786237 0.18984529 1.1250185
0.055038389 0.034466729 0.96281862
0.093109384 0.06080595 0.99411219
0.22150017 0.1497644 1.0669943
0.13211104 0.087520704 1.0080327
0.17725387 0.11861211 1.0488393
0.27928469 0.18887158 1.1250185
0.055158362 0.034274399 0.96281862
0.093321078 0.060480569 0.99411219
0.13306592 0.087484479 1.012972
0.17766681 0.11799266 1.0488393
0.27870247 0.1870643 1.1202464
0.055277668 0.034081649 0.96281862
0.093531623 0.060154449 0.99411219
0.2214936 0.14751844 1.0621549
0.13337049 0.087019473 1.012972
0.1772268 0.11681247 1.0439441
0.27935371 0.18609032 1.1202464
0.0553963 0.033888489 0.96281862
0.22200717 0.14674439 1.0621549
0.1330203 0.086132467 1.0080327
0.17763345 0.11619312 1.0439441
0.27875599 0.18429147 1.1154745
0.055265356 0.033548653 0.95782697
0.094400913 0.059783202 0.9990837
0.13332014 0.085667618 1.0080327
0.17718326 0.11501899 1.0390489
0.27814913 0.1824991 1.1107025
0.055382125 0.033355534 0.95782697
0.13296233 0.084785394 1.0030935
0.17758365 0.11439979 1.0390489
0.27753314 0.18071321 1.1059306
0.05549822 0.033162013 0.95782697
0.22247535 0.14373024 1.0573155
0.13259998 0.083906695 0.99815416
0.17798191 0.11377922 1.0390489
0.2769081 0.17893384 1.1011585
0.055613644 0.032968085 0.95782697
0.22297572 0.14295278 1.0573155
0.13289206 0.083443329 0.99815416
0.17837797 0.11315725 1.0390489
0.277531 0.17796616 1.1011585
0.055979297 0.032916531 0.96281862
0.1787719 0.11253391 1.0390489
0.27689075 0.17619559 1.0963866
0.056093857 0.032720923 0.96281862
0.22290486 0.14072245 1.052476
0.13347135 0.082513548 0.99815416
0.17916362 0.11190919 1.0390489
0.27750412 0.17522798 1.0963866
0.056207735 0.032524921 0.96281862
0.33495387 0.21143167 1.1313714
0.13375857 0.082047135 0.99815416
0.17955317 0.11128312 1.0390489
0.27684879 0.17346637 1.0916146
0.056320921 0.032328524 0.96281862
0.09445817 0.056642734 0.98416919
0.33568984 0.2102612 1.1313714
0.13404416 0.081579737 0.99815416
0.17994051 0.11065568 1.0390489
0.27745262 0.17249893 1.0916146
0.056433424 0.032131728 0.96281862
0.093277283 0.055501271 0.96925467
0.33495578 0.20817776 1.1266786
0.13432811 0.081111334 0.99815416
0.17945585 0.10949761 1.0341536
0.27678218 0.17074634 1.0868427
0.056291874 0.031796172 0.95782697
0.095771879 0.056519642 0.99411219
0.22377527 0.13694124 1.0476366
0.3356804 0.20700726 1.1266786
0.13461041 0.080641948 0.99815416
0.17983697 0.10887052 1.0341536
0.27737653 0.16977915 1.0868427
0.056402519 0.031599481 0.95782697
0.095046148 0.055650484 0.98416919
0.33492863 0.20493414 1.1219858
0.13489109 0.080171585 0.99815416
0.18021591 0.10824212 1.0341536
0.27796748 0.16880991 1.0868427
0.056512482 0.031402409 0.95782697
0.09570197 0.055584013 0.98914069
0.33564195 0.20376378 1.1219858
0.13517012 0.079700232 0.99815416
0.17971732 0.10709224 1.0292584
0.27855507 0.16783859 1.0868427
0.056621749 0.031204952 0.95782697
0.095895417 0.055249613 0.98914069
0.3348726 0.2017011 1.1172931
0.13477597 0.078837067 0.99321491
0.18009004 0.10646425 1.0292584
0.27785757 0.16609998 1.0820707
0.05673033 0.031007115 0.95782697
0.096087694 0.054914538 0.98914069
0.22458375 0.13316329 1.0427972
0.3355746 0.20053093 1.1172931
0.13505034 0.078366138 0.99321491
0.18046057 0.10583498 1.0292584
0.27843568 0.16512907 1.0820707
0.056838222 0.0308089 0.95782697
0.095813878 0.054318003 0.98416919
0.2250472 0.13237852 1.0427972
0.33627257 0.19935834 1.1172931
0.13532306 0.077894248 0.99321491
0.1808289 0.1052044 1.0292584
0.27901039 0.16415614 1.0820707
0.056945421 0.030610308 0.95782697
0.096002907 0.053983223 0.98416919
0.22550792 0.13159215 1.0427972
0.33547857 0.19730902 1.1126002
0.13559414 0.077421404 0.99321491
0.18119505 0.10457256 1.0292584
0.2795817 0.16318122 1.0820707
0.057051923 0.030411348 0.95782697
0.095724039 0.053390246 0.97919768
0.22596589 0.13080418 1.0427972
0.33765614 0.19700587 1.1172931
0.13586357 0.076947622 0.99321491
0.18155895 0.10393943 1.0292584
0.27885741 0.16145703 1.0772986
0.057157725 0.030212013 0.95782697
0.095909826 0.053055782 0.97919768
0.22642109 0.13001461 1.0427972
0.33535397 0.19409826 1.1079074
0.13680959 0.076851964 0.99815416
0.18103464 0.10280333 1.0243632
0.27941927 0.16048266 1.0772986
0.057262838 0.030012311 0.95782697
0.096562944 0.052974936 0.98416919
0.22687356 0.12922347 1.0427972
0.34052014 0.19550249 1.1219858
0.13707703 0.076373935 0.99815416
0.18139239 0.10217078 1.0243632
0.27868041 0.15876812 1.0725267
0.057367254 0.029812243 0.95782697
0.096747272 0.052637547 0.98416919
0.22841813 0.12904818 1.0476366
0.13802367 0.076269314 1.0030935
0.18174793 0.10153697 1.0243632
0.27923292 0.15779437 1.0725267
0.39491186 0.22457723 1.129838
0.057470966 0.029611813 0.95782697
0.096930422 0.052299518 0.98416919
0.23106124 0.12947729 1.0573155
0.13897125 0.076158993 1.0080327
0.18210125 0.10090194 1.0243632
0.27847952 0.15608956 1.0677547
0.39569339 0.22319737 1.129838
0.057573985 0.029411022 0.95782697
0.097583532 0.052210201 0.98914069
0.2315118 0.12866995 1.0573155
0.13923624 0.075673424 1.0080327
0.18245235 0.10026567 1.0243632
0.27902263 0.15511653 1.0677547
0.39647004 0.22181478 1.129838
0.057676297 0.029209871 0.95782697
0.097293168 0.051621545 0.98416919
0.23306081 0.12846696 1.0621549
0.13949955 0.075186953 1.0080327
0.18280122 0.099628188 1.0243632
0.27956241 0.15414163 1.0677547
0.39724192 0.22042947 1.129838
0.057777908 0.029008364 0.95782697
0.097472772 0.051281616 0.98416919
0.23350783 0.12765265 1.0621549
0.13976115 0.074699543 1.0080327
0.18314788 0.098989479 1.0243632
0.27878872 0.15244938 1.0629828
0.39800894 0.21904151 1.129838
0.057618547 0.028681584 0.9528352
0.097177461 0.050696656 0.97919768
0.23284651 0.12623854 1.0573155
0.14002106 0.074211232 1.0080327
0.18349232 0.098349571 1.0243632
0.27931917 0.1514753 1.0629828
0.39705601 0.21671535 1.1252354
0.057718314 0.028480282 0.9528352
0.097353838 0.050357137 0.97919768
0.23217818 0.12483062 1.052476
0.13959067 0.073362038 1.0030935
0.18383451 0.097708464 1.0243632
0.27984622 0.15049937 1.0629828
0.39781004 0.21532804 1.1252354
0.05781737 0.028278634 0.9528352
0.097053602 0.049775913 0.97422618
0.23261251 0.12401941 1.052476
0.33520421 0.18020266 1.0891365
0.13984589 0.072874323 1.0030935
0.18417443 0.097066171 1.0243632
0.28036985 0.1495216 1.0629828
0.39683765 0.21301462 1.1206329
0.057915732 0.028076641 0.9528352
0.097226761 0.04943683 0.97422618
0.23193231 0.12262006 1.0476366
0.3373543 0.17984271 1.0938292
0.4638741 0.24864407 1.1520553
0.14009944 0.072385721 1.0030935
0.18360916 0.095952228 1.0194679
0.28089005 0.14854203 1.0629828
0.39757884 0.21162811 1.1206329
0.058013387 0.027874306 0.9528352
0.097398743 0.049097143 0.97422618
0.23235892 0.12180971 1.0476366
0.33492815 0.17705224 1.0844437
0.46281669 0.246002 1.147554
0.14035124 0.071896248 1.0030935
0.18394297 0.095310725 1.0194679
0.28405157 0.1489456 1.0725267
0.3965871 0.20932756 1.1160305
0.058110334 0.027671631 0.9528352
0.097091608 0.048520762 0.96925467
0.23166692 0.12041904 1.0427972
0.3340154 0.17508148 1.0797509
0.46367258 0.24438496 1.147554
0.13990781 0.071055561 0.99815416
0.18427455 0.094668061 1.0194679
0.28192025 0.14657743 1.0629828
0.39731538 0.20794193 1.1160305
0.058206569 0.027468622 0.9528352
0.097260386 0.048181552 0.96925467
0.23208588 0.11960964 1.0427972
0.3346245 0.17391446 1.0797509
0.46259326 0.24175707 1.1430528
0.14015499 0.070566759 0.99815416
0.183696 0.093563259 1.0145727
0.28110301 0.14490922 1.0582107
0.39630449 0.2056544 1.1114279
0.058302097 0.027265275 0.9528352
0.097427979 0.047841758 0.96925467
0.23138221 0.11822774 1.0379578
0.33522955 0.17274536 1.0797509
0.46343434 0.24014084 1.1430528
0.14040047 0.070077099 0.99815416
0.18402147 0.092921466 1.0145727
0.28160712 0.1439271 1.0582107
0.39701995 0.2042698 1.1114279
0.058396917 0.027061597 0.9528352
0.09759438 0.047501378 0.96925467
0.23067173 0.11685221 1.0331184
0.33583051 0.17157413 1.0797509
0.4623332 0.23752728 1.1385516
0.14064421 0.069586582 0.99815416
0.18434472 0.092278548 1.0145727
0.39773053 0.20288268 1.1114279
0.058491025 0.026857588 0.9528352
0.097278431 0.046931021 0.96428317
0.2299545 0.1154831 1.0282789
0.33488756 0.16962168 1.0750581
0.46315953 0.235912 1.1385516
0.14088628 0.069095217 0.99815416
0.18466571 0.091634504 1.0145727
0.39669266 0.20061193 1.1068254
0.058584418 0.026653253 0.9528352
0.097441658 0.04659117 0.96428317
0.23148189 0.11523899 1.0331184
0.33547765 0.16845167 1.0750581
0.46203676 0.23331298 1.1340504
0.1411266 0.068603009 0.99815416
0.18498443 0.090989336 1.0145727
0.39739051 0.19922599 1.1068254
0.058677096 0.026448593 0.9528352
0.098086454 0.046476781 0.96925467
0.22849984 0.11276421 1.0186001
0.33606359 0.1672796 1.0750581
0.46090147 0.23072468 1.1295491
0.1413652 0.068109967 0.99815416
0.18530093 0.090343066 1.0145727
0.39633378 0.19696867 1.1022228
0.058769062 0.026243612 0.9528352
0.098248087 0.046134114 0.96925467
0.23002166 0.11251732 1.0234395
0.33664548 0.16610551 1.0750581
0.45975378 0.22814716 1.125048
0.14160208 0.067616098 0.99815416
0.18469782 0.08925382 1.0096775
0.39701891 0.19558401 1.1022228
0.058860309 0.026038308 0.9528352
0.098408528 0.045790888 0.96925467
0.23154448 0.11226118 1.0282789
0.33722323 0.16492938 1.0750581
0.45859373 0.22558047 1.1205468
0.14183725 0.067121401 0.99815416
0.18500826 0.088608563 1.0096775
0.28052917 0.13604617 1.0438948
0.3959434 0.19334024 1.0976204
0.058950841 0.02583269 0.9528352
0.098567769 0.045447096 0.96925467
0.33779687 0.16375124 1.0750581
0.45742142 0.2230247 1.1160456
0.1413665 0.066297516 0.99321491
0.18439604 0.087526761 1.0047823
0.39485708 0.19110635 1.0930177
0.059040658 0.025626754 0.9528352
0.098725811 0.045102753 0.96925467
0.33836645 0.16257112 1.0750581
0.45819715 0.22142662 1.1160456
0.14159706 0.065803647 0.99321491
0.18470044 0.086882561 1.0047823
0.28012413 0.13344319 1.0391228
0.39552179 0.18972687 1.0930177
0.059129752 0.025420509 0.9528352
0.098882645 0.044757865 0.96925467
0.3373735 0.16064772 1.0703654
0.45700371 0.21888594 1.1115444
0.14111941 0.064985536 0.98827571
0.18500258 0.086237319 1.0047823
0.27923802 0.13182805 1.0343508
0.39441699 0.18750679 1.0884153
0.059218124 0.025213953 0.9528352
0.099038281 0.044412423 0.96925467
0.33637127 0.15873325 1.0656726
0.45776498 0.21728936 1.1115444
0.14134538 0.064492531 0.98827571
0.18345267 0.084739409 0.99499178
0.28104889 0.13148431 1.0391228
0.39506909 0.18612887 1.0884153
0.52207041 0.24700111 1.1257036
0.059038185 0.024898756 0.94784355
0.099192701 0.044066444 0.96925467
0.22890499 0.10609253 1.0089213
0.33692333 0.15755811 1.0656726
0.45852068 0.21569014 1.1115444
0.14156964 0.063998759 0.98827571
0.18652651 0.085366227 1.0096775
0.28150615 0.13050248 1.0391228
0.39394593 0.18392272 1.0838127
0.059124742 0.024692524 0.94784355
0.098857038 0.043507464 0.96428317
0.22927393 0.10529286 1.0089213
0.33590522 0.15565614 1.0609798
0.45927081 0.21408831 1.1115444
0.14179218 0.063504197 0.98827571
0.28331676 0.13014138 1.0438948
0.39281219 0.18172669 1.0792102
0.5216099 0.24234164 1.1213145
0.059210572 0.02448599 0.94784355
0.099008307 0.043162122 0.96428317
0.22849555 0.10397223 1.0040818
0.33644652 0.15448268 1.0609798
0.46001527 0.21248384 1.1115444
0.14201298 0.06300886 0.98827571
0.28376931 0.12915161 1.0438948
0.39166796 0.17954084 1.0746076
0.52027696 0.23951824 1.1169254
0.059295688 0.024279159 0.94784355
0.099158369 0.042816255 0.96428317
0.2288571 0.103174 1.0040818
0.33541265 0.15259333 1.0562871
0.46075422 0.21087678 1.1115444
0.14223206 0.062512763 0.98827571
0.2855795 0.12877314 1.0486668
0.3905133 0.17736521 1.0700052
0.52110982 0.23770066 1.1169254
0.059380069 0.024072029 0.94784355
0.099307224 0.042469867 0.96428317
0.22921586 0.10237452 1.0040818
0.33594328 0.15142161 1.0562871
0.4614875 0.20926717 1.1115444
0.14244941 0.062015899 0.98827571
0.28466403 0.1271674 1.0438948
0.38934818 0.17519981 1.0654026
0.51975375 0.23489426 1.1125363
0.059463739 0.023864608 0.94784355
0.099454865 0.04212296 0.96428317
0.23072171 0.10208143 1.0089213
0.33489382 0.14954503 1.0515944
0.46221516 0.207655 1.1115444
0.14266501 0.061518278 0.98827571
0.28374088 0.12556963 1.0391228
0.38995737 0.17383967 1.0654026
0.52057052 0.23307854 1.1125363
0.059546679 0.023656894 0.94784355
0.099108778 0.041571632 0.95931166
0.23107663 0.10127544 1.0089213
0.33541381 0.14837511 1.0515944
0.46293721 0.20604029 1.1115444
0.14287889 0.061019912 0.98827571
0.1864033 0.080635034 0.99988699
0.28281003 0.12397987 1.0343508
0.39056179 0.17247741 1.0654026
0.5191915 0.2302893 1.1081473
0.059628896 0.023448894 0.94784355
0.099253289 0.041225426 0.95931166
0.23258215 0.1009678 1.0137607
0.33434883 0.14651142 1.0469016
0.46166146 0.2035453 1.1070431
0.14237472 0.060219698 0.98333645
0.18668364 0.079983875 0.99988699
0.28187153 0.12239814 1.0295788
0.51999223 0.2284756 1.1081473
0.059710387 0.023240605 0.94784355
0.099396586 0.040878717 0.95931166
0.23408832 0.10065091 1.0186001
0.33485821 0.14534344 1.0469016
0.460374 0.20106171 1.1025419
0.14258407 0.059722356 0.98333645
0.18696171 0.079331748 0.99988699
0.28092545 0.12082448 1.0248069
0.51859045 0.2257037 1.1037582
0.059791148 0.023032036 0.94784355
0.099538669 0.040531509 0.95931166
0.23559512 0.10032471 1.0234395
0.33377784 0.14349276 1.0422088
0.45707661 0.19772576 1.0935396
0.1420733 0.058928184 0.97839719
0.18723749 0.078678638 0.99988699
0.28134552 0.11984314 1.0248069
0.51717561 0.22294438 1.0993692
0.059871178 0.022823187 0.94784355
0.099679545 0.040183809 0.95931166
0.23594388 0.099501722 1.0234395
0.33427671 0.14232679 1.0422088
0.45576283 0.19527218 1.0890384
0.14227813 0.058431897 0.97839719
0.18751098 0.078024589 0.99988699
0.28176215 0.11886032 1.0248069
0.5157479 0.22019774 1.09498
0.059950482 0.022614058 0.94784355
0.099819198 0.039835617 0.95931166
0.33318111 0.14048922 1.037516
0.45243332 0.19198027 1.0800359
0.14176081 0.057643827 0.97345793
0.18684027 0.076982878 0.99499178
0.2821753 0.11787607 1.0248069
0.51651335 0.2183961 1.09498
0.060029052 0.022404654 0.94784355
0.099957645 0.039486937 0.95931166
0.33366948 0.13932535 1.037516
0.45109358 0.1895569 1.0755347
0.14196116 0.057148639 0.97345793
0.18710786 0.076330215 0.99499178
0.28258505 0.11689037 1.0248069
0.51506329 0.21566717 1.090591
0.059834659 0.022098895 0.9428519
0.10009488 0.039137784 0.95931166
0.33415377 0.1381598 1.037516
0.44974238 0.18714523 1.0710334
0.14215977 0.056652751 0.97345793
0.18642856 0.075296506 0.99009657
0.28299135 0.11590326 1.0248069
0.51360047 0.21295105 1.0862019
0.059911437 0.021889899 0.9428519
0.10023089 0.038788147 0.95931166
0.33463401 0.13699253 1.037516
0.4503929 0.18557419 1.0710334
0.14235668 0.056156177 0.97345793
0.18669026 0.074645288 0.99009657
0.28339419 0.11491472 1.0248069
0.51434064 0.21115693 1.0862019
0.059987478 0.021680634 0.9428519
0.10036567 0.038438041 0.95931166
0.33511019 0.13582359 1.037516
0.44902208 0.18317907 1.0665321
0.14255181 0.055658918 0.97345793
0.18694967 0.073993161 0.99009657
0.28379363 0.11392479 1.0248069
0.51285565 0.20845881 1.0818129
0.060062796 0.021471106 0.9428519
0.10049924 0.038087465 0.95931166
0.33558226 0.13465303 1.037516
0.44965875 0.18161058 1.0665321
0.14274523 0.055160977 0.97345793
0.18720682 0.073340148 0.99009657
0.27863955 0.1107316 1.0057189
0.5135802 0.20666735 1.0818129
0.060137376 0.02126132 0.9428519
0.10063157 0.037736427 0.95931166
0.33444616 0.13284442 1.0328233
0.44826838 0.17923212 1.062031
0.1429369 0.054662369 0.97345793
0.18746169 0.072686218 0.99009657
0.27902442 0.1097583 1.0057189
0.5142985 0.20487337 1.0818129
0.060211226 0.021051269 0.9428519
0.10076268 0.037384924 0.95931166
0.33490786 0.13167618 1.0328233
0.44686699 0.17686561 1.0575298
0.14239955 0.053889718 0.96851867
0.18771426 0.072031409 0.99009657
0.51278234 0.20219871 1.0774238
0.060284343 0.020840965 0.9428519
0.10089257 0.037032973 0.95931166
0.33375698 0.12988116 1.0281305
0.4474816 0.17530467 1.0575298
0.14258678 0.053392321 0.96851867
0.18701223 0.071015492 0.9852013
0.51348495 0.20040755 1.0774238
0.060356721 0.020630408 0.9428519
0.10102122 0.036680561 0.95931166
0.33420834 0.12871534 1.0281305
0.44606096 0.17295507 1.0530286
0.14204307 0.052625977 0.96357942
0.18725897 0.070362262 0.9852013
0.51418144 0.19861393 1.0774238
0.06042837 0.020419598 0.9428519
0.10114864 0.036327712 0.95931166
0.33304283 0.12693402 1.0234377
0.44666192 0.17139699 1.0530286
0.14222591 0.052129835 0.96357942
0.18750344 0.069708183 0.9852013
0.51263434 0.19596313 1.0730346
0.060499281 0.020208538 0.9428519
0.10127483 0.035974413 0.95931166
0.33348387 0.12577072 1.0234377
0.44522217 0.16906446 1.0485274
0.14240701 0.051633056 0.96357942
0.18678956 0.068702988 0.98030609
0.27949876 0.10435063 1.000947
0.38312325 0.14421746 1.0239799
0.51107496 0.19332553 1.0686456
0.06056945 0.019997234 0.9428519
0.10139979 0.035620678 0.95931166
0.33553791 0.12520853 1.0281305
0.44580963 0.16750932 1.0485274
0.14258637 0.051135644 0.96357942
0.18702824 0.068050556 0.98030609
0.27986127 0.10337437 1.000947
0.38362429 0.14287922 1.0239799
0.50950354 0.19070123 1.0642565
0.060638886 0.019785685 0.9428519
0.10101917 0.035093933 0.95434016
0.33597291 0.12403652 1.0281305
0.44639161 0.16595212 1.0485274
0.142764 0.050637614 0.96357942
0.18726464 0.067397289 0.98030609
0.27881807 0.10188533 0.99617493
0.38595411 0.14221418 1.0285825
0.50792003 0.18809026 1.0598675
0.06070758 0.019573895 0.9428519
0.10114106 0.034741096 0.95434016
0.338025 0.12345435 1.0328233
0.44696814 0.16439293 1.0485274
0.14293988 0.050138969 0.96357942
0.18749875 0.06674321 0.98030609
0.27917203 0.10091145 0.99617493
0.38828388 0.1415346 1.033185
0.50632453 0.18549271 1.0554783
0.060775541 0.019361867 0.9428519
0.10126171 0.034387838 0.95434016
0.33845392 0.12227366 1.0328233
0.44753927 0.16283172 1.0485274
0.14311403 0.049639709 0.96357942
0.18773058 0.066088311 0.98030609
0.2781167 0.099434622 0.99140298
0.38693753 0.13951626 1.0285825
0.50471705 0.18290856 1.0510893
0.060842752 0.019149603 0.9428519
0.10138112 0.034034159 0.95434016
0.33725336 0.12051148 1.0281305
0.44810495 0.16126852 1.0485274
0.14328644 0.049139842 0.96357942
0.1879487 0.065465406 0.98030609
0.27844492 0.098511815 0.99140298
0.38737389 0.13829997 1.0285825
0.50303477 0.1805135 1.0467001
0.06061586 0.018908307 0.93786025
0.10197644 0.033934589 0.95931166
0.33754686 0.11968706 1.0281305
0.4464474 0.15944143 1.0440261
0.14263602 0.048640579 0.95864016
0.18711144 0.064772613 0.97541088
0.27722508 0.097482719 0.98663098
0.38582119 0.1368359 1.0239799
0.50341171 0.17945956 1.0467001
0.060665153 0.01874955 0.93786025
0.10257193 0.033832137 0.96428317
0.23712264 0.082421452 1.0040818
0.33625144 0.11817248 1.0234377
0.44689089 0.15819409 1.0440261
0.14280494 0.048142388 0.95864016
0.18733639 0.064119086 0.97541088
0.27756366 0.096514434 0.98663098
0.38445279 0.13484226 1.0193774
0.50403506 0.17770125 1.0467001
0.06073023 0.018537674 0.93786025
0.10319696 0.033636749 0.96925467
0.23740889 0.081593245 1.0040818
0.33666191 0.11699802 1.0234377
0.44744039 0.1566332 1.0440261
0.14297211 0.047643613 0.95864016
0.18659414 0.063139662 0.97051567
0.27648699 0.095060468 0.98185903
0.38492113 0.13349946 1.0193774
0.50239068 0.17515272 1.0423111
0.06079457 0.018325575 0.93786025
0.33543602 0.11526203 1.0187449
0.44592705 0.15435876 1.0395249
0.14239898 0.046902858 0.9537009
0.18681341 0.062487938 0.97051567
0.27681714 0.094094761 0.98185903
0.38168836 0.13088872 1.0101724
0.50299901 0.17339799 1.0423111
0.060858171 0.01811325 0.93786025
0.10342928 0.032915484 0.96925467
0.23678088 0.079534583 0.99924237
0.33420211 0.11353603 1.0140522
0.44440335 0.15209681 1.0350237
0.14256185 0.046405509 0.9537009
0.18606323 0.061517101 0.9656204
0.2771439 0.093127921 0.98185903
0.3839933 0.13018228 1.0147749
0.50133413 0.17086892 1.037922
0.060921025 0.017900705 0.93786025
0.10354354 0.032554246 0.96925467
0.23705706 0.078707583 0.99924237
0.33459637 0.11236876 1.0140522
0.44286928 0.14984739 1.0305225
0.14198273 0.045671359 0.94876164
0.18627684 0.060867246 0.9656204
0.27746728 0.092159942 0.98185903
0.50192755 0.1691179 1.037922
0.06098314 0.017687941 0.93786025
0.10314676 0.032036856 0.96428317
0.23613571 0.077488691 0.99440295
0.33334857 0.11065712 1.0093595
0.44132495 0.14761055 1.0260212
0.14214131 0.045175467 0.94876164
0.18648815 0.060216647 0.9656204
0.27636874 0.090726092 0.97708696
0.50024241 0.16660845 1.0335329
0.06104451 0.017474962 0.93786025
0.10274762 0.031522628 0.95931166
0.23640478 0.076663949 0.99440295
0.33373278 0.10949283 1.0093595
0.43977043 0.14538632 1.0215201
0.14229813 0.044679027 0.94876164
0.18669723 0.059565313 0.9656204
0.27668375 0.089760825 0.97708696
0.37790799 0.12372492 0.99636471
0.49854583 0.16411281 1.0291438
0.061384071 0.017336197 0.9428519
0.10234617 0.031011581 0.95434016
0.23547359 0.075455688 0.98956347
0.33247119 0.10779568 1.0046667
0.44027525 0.14385034 1.0215201
0.14319587 0.044410508 0.9537009
0.18690401 0.058913253 0.9656204
0.27699539 0.088794477 0.97708696
0.49683809 0.16163108 1.0247548
0.061444212 0.017121822 0.9428519
0.1019424 0.03050372 0.9493686
0.23573554 0.074633278 0.98956347
0.33284548 0.10663448 1.0046667
0.44077471 0.14231262 1.0215201
0.14335001 0.043910392 0.9537009
0.18710852 0.058260478 0.9656204
0.27588034 0.087377176 0.97231501
0.49511904 0.15916327 1.0203657
0.0615036 0.016907237 0.9428519
0.10204825 0.030147688 0.9493686
0.23479466 0.073435746 0.98472404
0.33157021 0.10495192 0.99997389
0.43919468 0.14011203 1.0170189
0.14350241 0.043409739 0.9537009
0.18731074 0.057606995 0.9656204
0.27618366 0.086413637 0.97231501
0.49338886 0.15670943 1.0159767
0.061562248 0.016692447 0.9428519
0.10215287 0.029791292 0.9493686
