# .PCD v0.7 - Point Cloud Data file format
VERSION 0.7
FIELDS x y z
SIZE 4 4 4
TYPE F F F
COUNT 1 1 1
WIDTH 1409
HEIGHT 1
VIEWPOINT 0 0 0 1 0 0 0
POINTS 1409
DATA ascii
0.29533571 -0.19180802 0.79195815
0.36917746 -0.23909323 0.78961724
0.55353582 -0.3573432 0.79255128
0.13440946 -0.08926326 0.79918271
0.19566986 -0.12861837 0.79575157
0.26090571 -0.17051636 0.7938537
0.32943013 -0.21455427 0.78774446
0.40874445 -0.26565111 0.78860539
0.50443232 -0.32725531 0.79653335
0.074609503 -0.05107474 0.80022353
0.22425938 -0.14747185 0.78410661
0.29466435 -0.19283774 0.79195815
0.36834064 -0.24038044 0.78961724
0.55228513 -0.3592732 0.79255128
0.13409704 -0.089731894 0.79918271
0.19521971 -0.12930061 0.79575157
0.26030892 -0.17142606 0.7938537
0.32867917 -0.21570289 0.78774446
0.40781468 -0.26707625 0.78860539
0.5032869 -0.32901412 0.79653335
0.074430764 -0.051334862 0.80022353
0.22374323 -0.14825375 0.78410661
0.29217246 -0.19266614 0.78745693
0.36749932 -0.24166474 0.78961724
0.5481925 -0.35934007 0.78887612
0.13378301 -0.090199433 0.79918271
0.19476718 -0.12998126 0.79575157
0.25970894 -0.17233364 0.7938537
0.32792425 -0.21684888 0.78774446
0.40687993 -0.26849815 0.78860539
0.49945891 -0.32900539 0.79269582
0.074251123 -0.051594362 0.80022353
0.22322436 -0.14903384 0.78410661
0.29149815 -0.19368485 0.78745693
0.36447966 -0.24150509 0.78535134
0.54693484 -0.36125144 0.78887612
0.13346733 -0.090665877 0.79918271
0.19431227 -0.13066034 0.79575157
0.2591058 -0.17323914 0.7938537
0.32716528 -0.21799225 0.78774446
0.4059402 -0.26991677 0.78860539
0.49830741 -0.33074683 0.79269582
0.074070573 -0.051853232 0.80022353
0.22413413 -0.15077616 0.78879941
0.29082027 -0.19470119 0.78745693
0.36363447 -0.24277589 0.78535134
0.54567051 -0.3631584 0.78887612
0.10161205 -0.070205852 0.78576612
0.13315004 -0.09113121 0.79918271
0.193855 -0.13133782 0.79575157
0.2584995 -0.17414254 0.7938537
0.32640237 -0.21913293 0.78774446
0.40499553 -0.27133214 0.78860539
0.49714985 -0.33248425 0.79269582
0.073889121 -0.052111469 0.80022353
0.16373064 -0.11177558 0.80082595
0.22360645 -0.15155761 0.78879941
0.29013887 -0.19571516 0.78745693
0.3627848 -0.24404374 0.78535134
0.45250189 -0.30386734 0.79651427
0.54439956 -0.3650609 0.78887612
0.10136636 -0.070560113 0.78576612
0.13283111 -0.091595434 0.79918271
0.19462761 -0.13285618 0.80052364
0.25789005 -0.17504381 0.7938537
0.32563546 -0.22027096 0.78774446
0.40404594 -0.27274421 0.78860539
0.073706768 -0.052369073 0.80022353
0.16230455 -0.11163303 0.79598653
0.22307605 -0.15233721 0.78879941
0.28945395 -0.19672672 0.78745693
0.36408931 -0.24677226 0.78961724
0.45143849 -0.30544502 0.79651427
0.54312193 -0.36695898 0.78887612
0.10111944 -0.070913516 0.78576612
0.13251059 -0.092058539 0.79918271
0.19416268 -0.13353474 0.80052364
0.25727746 -0.17594296 0.7938537
0.32486457 -0.22140628 0.78774446
0.40309146 -0.2741529 0.78860539
0.073523514 -0.052626036 0.80022353
0.1619139 -0.11219889 0.79598653
0.22254294 -0.15311497 0.78879941
0.28876546 -0.19773592 0.78745693
0.3632257 -0.24804167 0.78961724
0.44787994 -0.30532134 0.79252422
0.54183769 -0.36885265 0.78887612
0.10087129 -0.071266055 0.78576612
0.13218842 -0.092520528 0.79918271
0.19369538 -0.13421169 0.80052364
0.25666174 -0.17683995 0.7938537
0.32408974 -0.22253892 0.78774446
0.399811 -0.27396724 0.78447241
0.073339365 -0.052882366 0.80022353
0.16049138 -0.11204279 0.79114711
0.22058937 -0.15290697 0.78410661
0.28807348 -0.19874269 0.78745693
0.36450598 -0.25078675 0.7938832
0.44681147 -0.30688286 0.79252422
0.54054689 -0.37074172 0.78887612
0.10062192 -0.07161773 0.78576612
0.13186467 -0.092981391 0.79918271
0.19322571 -0.13488699 0.80052364
0.25443846 -0.17662008 0.78925115
0.32331097 -0.22366886 0.78774446
0.3988522 -0.27536118 0.78447241
0.49245918 -0.33939311 0.79269582
0.073154323 -0.053138047 0.80022353
0.1600993 -0.11260233 0.79114711
0.22005428 -0.15367603 0.78410661
0.28737798 -0.19974704 0.78745693
0.44573754 -0.30844069 0.79252422
0.53924942 -0.37262633 0.78887612
0.1315393 -0.093441121 0.79918271
0.19275369 -0.13556065 0.80052364
0.25382039 -0.17750716 0.78925115
0.32252824 -0.22479604 0.78774446
0.39788857 -0.27675176 0.78447241
0.49127147 -0.34111005 0.79269582
0.072968394 -0.053393073 0.80022353
0.15868041 -0.11243271 0.78630769
0.21951652 -0.15444322 0.78410661
0.286679 -0.20074895 0.78745693
0.44465816 -0.3099947 0.79252422
0.53516328 -0.37256917 0.78520095
0.13121232 -0.093899712 0.79918271
0.19227932 -0.13623267 0.80052364
0.25319922 -0.1783921 0.78925115
0.32174161 -0.2259205 0.78774446
0.39692011 -0.27813897 0.78447241
0.49007779 -0.34282285 0.79269582
0.07278157 -0.053647459 0.80022353
0.15828699 -0.11298592 0.78630769
0.21897608 -0.15520854 0.78410661
0.2859765 -0.20174843 0.78745693
0.44357336 -0.31154495 0.79252422
0.53385949 -0.37443495 0.78520095
0.13088377 -0.094357148 0.79918271
0.19180261 -0.136903 0.80052364
0.25098231 -0.1781434 0.78464866
0.32290593 -0.22842585 0.79213357
0.39594683 -0.27952275 0.78447241
0.48625833 -0.34268472 0.78885829
0.072593868 -0.053901184 0.80022353
0.15789163 -0.11353777 0.78630769
0.21843296 -0.15597197 0.78410661
0.28527051 -0.20274545 0.78745693
0.44248316 -0.31309143 0.79252422
0.5325492 -0.37629619 0.78520095
0.13055359 -0.094813444 0.79918271
0.19011225 -0.13669935 0.79575157
0.25035894 -0.17901841 0.78464866
0.3221066 -0.22955163 0.79213357
0.39496869 -0.28090319 0.78447241
0.48505917 -0.34438002 0.78885829
0.072405271 -0.054154254 0.80022353
0.15749435 -0.11408821 0.78630769
0.21788718 -0.15673348 0.78410661
0.28456107 -0.20374 0.78745693
0.44138759 -0.31463408 0.79252422
0.53123248 -0.37815285 0.78520095
0.13022183 -0.095268592 0.79918271
0.18963392 -0.13736214 0.79575157
0.24973254 -0.17989123 0.78464866
0.32324854 -0.23207182 0.79652262
0.39398575 -0.28228018 0.78447241
0.48385412 -0.34607106 0.78885829
0.072215803 -0.054406665 0.80022353
0.15709515 -0.11463728 0.78630769
0.21733876 -0.1574931 0.78410661
0.28384814 -0.20473208 0.78745693
0.53266406 -0.38198081 0.78887612
0.1298885 -0.095722564 0.79918271
0.18915328 -0.13802324 0.79575157
0.24910308 -0.18076187 0.78464866
0.32243648 -0.23319875 0.79652262
0.39299798 -0.28365374 0.78447241
0.48264316 -0.34775797 0.78885829
0.072025448 -0.054658417 0.80022353
0.15669404 -0.11518494 0.78630769
0.21678767 -0.15825079 0.78410661
0.28313178 -0.20572162 0.78745693
0.53132743 -0.38383782 0.78887612
0.12955356 -0.096175373 0.79918271
0.18867034 -0.13868268 0.79575157
0.24847059 -0.1816303 0.78464866
0.32162049 -0.23432282 0.79652262
0.39200547 -0.28502381 0.78447241
0.4814263 -0.34944057 0.78885829
0.071834207 -0.054909501 0.80022353
0.15629099 -0.1157312 0.78630769
0.21623394 -0.15900657 0.78410661
0.28241193 -0.2067087 0.78745693
0.52998435 -0.38569015 0.78887612
0.1881851 -0.13934042 0.79575157
0.24783507 -0.18249652 0.78464866
0.3208006 -0.23544408 0.79652262
0.39100814 -0.28639042 0.78447241
0.4802036 -0.35111892 0.78885829
0.071642101 -0.055159912 0.80022353
0.15588607 -0.11627606 0.78630769
0.2156776 -0.15976039 0.78410661
0.28168866 -0.20769323 0.78745693
0.35644871 -0.26211241 0.7938832
0.52590084 -0.38553312 0.78520095
0.18769756 -0.13999645 0.79575157
0.24719653 -0.18336053 0.78464866
0.31997681 -0.23656243 0.79652262
0.3900061 -0.28775358 0.78447241
0.47897506 -0.35279298 0.78885829
0.071449123 -0.055409655 0.80022353
0.15547925 -0.11681949 0.78630769
0.21511862 -0.16051227 0.78410661
0.28096199 -0.20867524 0.78745693
0.3534362 -0.26180229 0.78961724
0.52455193 -0.3873665 0.78520095
0.18720773 -0.14065079 0.79575157
0.24499041 -0.18305226 0.78004611
0.31722859 -0.23624696 0.79213357
0.38899925 -0.28911322 0.78447241
0.47774065 -0.3544628 0.78885829
0.071255274 -0.05565872 0.80022353
0.15507051 -0.11736152 0.78630769
0.21455702 -0.1612622 0.78410661
0.28023183 -0.20965472 0.78745693
0.35252017 -0.2630344 0.78961724
0.52319652 -0.3891952 0.78520095
0.18671563 -0.14130342 0.79575157
0.24434993 -0.18390632 0.78004611
0.31640199 -0.23735286 0.79213357
0.3879877 -0.29046929 0.78447241
0.47650042 -0.35612825 0.78885829
0.071060553 -0.055907112 0.80022353
0.15465991 -0.1179021 0.78630769
0.2139928 -0.16201016 0.78410661
0.27949828 -0.21063162 0.78745693
0.34951535 -0.26269597 0.78535134
0.52183485 -0.39101914 0.78520095
0.18622124 -0.1419543 0.79575157
0.24370651 -0.18475814 0.78004611
0.3136611 -0.23701151 0.78774446
0.38697141 -0.29182187 0.78447241
0.47525439 -0.3577894 0.78885829
0.070864961 -0.056154817 0.80022353
0.1542474 -0.11844124 0.78630769
0.21342596 -0.16275615 0.78410661
0.27876139 -0.21160598 0.78745693
0.34859625 -0.26391438 0.78535134
0.52046669 -0.3928383 0.78520095
0.18572462 -0.14260349 0.79575157
0.24306008 -0.18560772 0.78004611
0.31283188 -0.23810497 0.78774446
0.38595042 -0.29317087 0.78447241
0.47400257 -0.3594462 0.78885829
0.070668519 -0.056401841 0.80022353
0.15383305 -0.11897893 0.78630769
0.21422455 -0.16455212 0.78879941
0.27802104 -0.21257773 0.78745693
0.34767288 -0.2651296 0.78535134
0.51909232 -0.39465266 0.78520095
0.18522571 -0.14325091 0.79575157
0.24241072 -0.18645501 0.78004611
0.3100985 -0.23773786 0.78335541
0.38492468 -0.29451627 0.78447241
0.472745 -0.36109856 0.78885829
0.070471205 -0.056648172 0.80022353
0.15341678 -0.11951519 0.78630769
0.21364884 -0.16529891 0.78879941
0.27727726 -0.21354693 0.78745693
0.34467733 -0.26475251 0.78108543
0.51771152 -0.39646223 0.78520095
0.18472452 -0.14389658 0.79575157
0.24175839 -0.18730006 0.78004611
0.30926678 -0.23881884 0.78335541
0.38389432 -0.29585814 0.78447241
0.47148165 -0.36274657 0.78885829
0.070273042 -0.056893818 0.80022353
0.15299867 -0.12004998 0.78630769
0.21307053 -0.16604367 0.78879941
0.27653018 -0.21451351 0.78745693
0.34375107 -0.26595405 0.78108543
0.51632446 -0.39826697 0.78520095
0.18304743 -0.14361824 0.79097962
0.30843127 -0.23989694 0.78335541
0.3806366 -0.29547045 0.78033948
0.47021258 -0.36439011 0.78885829
0.070074022 -0.057138771 0.80022353
0.21248963 -0.16678642 0.78879941
0.27577969 -0.21547747 0.78745693
0.34282064 -0.26715231 0.78108543
0.51493114 -0.40006685 0.78520095
0.12611817 -0.10063815 0.79918271
0.18254501 -0.14425632 0.79097962
0.30759194 -0.2409721 0.78335541
0.37960291 -0.29679734 0.78033948
0.46893772 -0.36602923 0.78885829
0.069874138 -0.057383031 0.80022353
0.21190616 -0.16752714 0.78879941
0.27502584 -0.21643881 0.78745693
0.34188598 -0.26834738 0.78108543
0.51086181 -0.39977235 0.78152579
0.12497348 -0.10043865 0.79428744
0.18204032 -0.14489265 0.79097962
0.30674893 -0.24204433 0.78335541
0.3785646 -0.29812059 0.78033948
0.069673412 -0.057626586 0.80022353
0.21132007 -0.16826579 0.78879941
0.27426869 -0.2173975 0.78745693
0.34094724 -0.26953915 0.78108543
0.50946325 -0.40155315 0.78152579
0.12462212 -0.10087427 0.79428744
0.18153344 -0.14552721 0.79097962
0.23911969 -0.19065726 0.78004611
0.30590218 -0.24311361 0.78335541
0.37752163 -0.29944021 0.78033948
0.46385834 -0.36730406 0.78502083
0.069471829 -0.057869442 0.80022353
0.1513076 -0.12217448 0.78630769
0.21073143 -0.16900241 0.78879941
0.27350813 -0.21835357 0.78745693
0.3400043 -0.27072763 0.78108543
0.50805843 -0.40332904 0.78152579
0.12426925 -0.10130867 0.79428744
0.18102437 -0.14615999 0.79097962
0.23845273 -0.19149078 0.78004611
0.30505168 -0.24417992 0.78335541
0.37647408 -0.30075619 0.78033948
0.46257341 -0.36892095 0.78502083
0.069269404 -0.058111589 0.80022353
0.1508802 -0.1227019 0.78630769
0.21014024 -0.16973698 0.78879941
0.27274427 -0.21930695 0.78745693
0.33905721 -0.27191281 0.78108543
0.50664747 -0.40510008 0.78152579
0.12391485 -0.10174183 0.79428744
0.18051307 -0.146791 0.79097962
0.23778285 -0.19232197 0.78004611
0.30419749 -0.24524327 0.78335541
0.37542197 -0.30206847 0.78033948
0.46128279 -0.37053344 0.78502083
0.06906613 -0.058353037 0.80022353
0.15045097 -0.12322782 0.78630769
0.20820837 -0.16937971 0.78410661
0.2719771 -0.22025768 0.78745693
0.33810598 -0.27309471 0.78108543
0.50523031 -0.40686613 0.78152579
0.12355895 -0.10217375 0.79428744
0.17884544 -0.14647354 0.78620762
0.23711008 -0.19315083 0.78004611
0.30333957 -0.24630362 0.78335541
0.37436527 -0.30337712 0.78033948
0.45998657 -0.3721413 0.78502083
0.068862021 -0.058593765 0.80022353
0.1500199 -0.12375224 0.78630769
0.20761584 -0.17010547 0.78410661
0.27120662 -0.22120571 0.78745693
0.33715063 -0.27427322 0.78108543
0.50380701 -0.40862721 0.78152579
0.12320154 -0.10260444 0.79428744
0.17833306 -0.14709695 0.78620762
0.2364344 -0.19397731 0.78004611
0.30247799 -0.24736097 0.78335541
0.37330401 -0.30468202 0.78033948
0.45868477 -0.3737447 0.78502083
0.068657078 -0.058833778 0.80022353
0.14958702 -0.12427516 0.78630769
0.20702082 -0.17082915 0.78410661
0.2704328 -0.22215106 0.78745693
0.33619121 -0.27544844 0.78108543
0.50237763 -0.41038334 0.78152579
0.12284264 -0.10303386 0.79428744
0.17781851 -0.14771853 0.78620762
0.30161268 -0.24841531 0.78335541
0.37223816 -0.30598328 0.78033948
0.45737734 -0.37534356 0.78502083
0.068451285 -0.059073076 0.80022353
0.14915231 -0.12479655 0.78630769
0.20509669 -0.17044705 0.77941382
0.2696557 -0.22309369 0.78745693
0.33522767 -0.2766203 0.78108543
0.50094199 -0.41213444 0.78152579
0.12248223 -0.10346203 0.79428744
0.17730179 -0.14833833 0.78620762
0.3007437 -0.24946663 0.78335541
0.37116784 -0.30728075 0.78033948
0.068244666 -0.059311658 0.80022353
0.14871578 -0.12531643 0.78630769
0.20450047 -0.17116193 0.77941382
0.2672033 -0.22263952 0.78295571
0.33426005 -0.27778879 0.78108543
0.49950036 -0.41388059 0.78152579
0.12212034 -0.10388894 0.79428744
0.17792371 -0.14991902 0.79097962
0.29987109 -0.25051489 0.78335541
0.37009299 -0.3085745 0.78033948
0.068037212 -0.059549518 0.80022353
0.14827745 -0.12583478 0.78630769
0.20390177 -0.17187473 0.77941382
0.26642451 -0.22357088 0.78295571
0.33328831 -0.27895385 0.78108543
0.49805257 -0.41562164 0.78152579
0.12175696 -0.10431459 0.79428744
0.17739932 -0.15053917 0.79097962
0.29899478 -0.25156012 0.78335541
0.36901361 -0.30986446 0.78033948
0.067828931 -0.05978664 0.80022353
0.1478373 -0.12635159 0.78630769
0.20330057 -0.17258544 0.77941382
0.26564249 -0.22449951 0.78295571
0.33231255 -0.28011557 0.78108543
0.49659875 -0.41735762 0.78152579
0.12139209 -0.10473897 0.79428744
0.17687276 -0.1511575 0.79097962
0.23301302 -0.19807412 0.78004611
0.29811484 -0.25260225 0.78335541
0.3679297 -0.31115067 0.78033948
0.067619823 -0.060023047 0.80022353
0.14739533 -0.12686688 0.78630769
0.20269687 -0.17329404 0.77941382
0.2648572 -0.22542542 0.78295571
0.33133277 -0.28127384 0.78108543
0.49513891 -0.41908854 0.78152579
0.12179326 -0.10583115 0.79918271
0.17634404 -0.15177397 0.79097962
0.23232019 -0.19888628 0.78004611
0.29723129 -0.25364134 0.78335541
0.36684132 -0.31243309 0.78033948
0.067409895 -0.06025872 0.80022353
0.14695159 -0.12738062 0.78630769
0.20209074 -0.17400052 0.77941382
0.26572111 -0.22776584 0.78745693
0.33034888 -0.28242871 0.78108543
0.49109319 -0.41861489 0.77785063
0.1214231 -0.10625564 0.79918271
0.17694041 -0.15336713 0.79575157
0.23162454 -0.19969603 0.78004611
0.2963441 -0.25467736 0.78335541
0.36574849 -0.31371173 0.78033948
0.067199141 -0.060493656 0.80022353
0.14650606 -0.12789279 0.78630769
0.20148215 -0.17470491 0.77941382
0.26492444 -0.228692 0.78745693
0.32936102 -0.28358012 0.78108543
0.48962897 -0.42032656 0.77785063
0.17640398 -0.15398383 0.79575157
0.23092607 -0.20050332 0.78004611
0.29726383 -0.257278 0.78774446
0.36465123 -0.3149865 0.78033948
0.066987574 -0.060727857 0.80022353
0.14605874 -0.12840341 0.78630769
0.20087107 -0.17540714 0.77941382
0.26576701 -0.23104413 0.79195815
0.32836914 -0.28472805 0.78108543
0.48815876 -0.42203316 0.77785063
0.23022476 -0.20130818 0.78004611
0.29636398 -0.25831407 0.78774446
0.36354953 -0.31625745 0.78033948
0.066775188 -0.060961317 0.80022353
0.14560963 -0.12891246 0.78630769
0.20025757 -0.17610723 0.77941382
0.26495889 -0.23197043 0.79195815
0.32737327 -0.28587255 0.78108543
0.40403607 -0.35224345 0.78454423
0.48668262 -0.42373452 0.77785063
0.22952066 -0.20211059 0.78004611
0.29546046 -0.25934699 0.78774446
0.36032701 -0.31566986 0.77620655
0.066561982 -0.061194036 0.80022353
0.14515875 -0.12941997 0.78630769
0.19964162 -0.1768052 0.77941382
0.26414755 -0.23289388 0.79195815
0.32637337 -0.28701356 0.78108543
0.40280405 -0.35365167 0.78454423
0.48520055 -0.4254308 0.77785063
0.1199277 -0.10794061 0.79918271
0.29455337 -0.26037675 0.78774446
0.35922289 -0.31692573 0.77620655
0.066347964 -0.06142601 0.80022353
0.14470612 -0.12992588 0.78630769
0.19902323 -0.17750101 0.77941382
0.32536954 -0.28815106 0.78108543
0.39930996 -0.35305929 0.78055412
0.48371255 -0.42712188 0.77785063
0.11955018 -0.10835858 0.79918271
0.22664745 -0.20240609 0.77544361
0.2936427 -0.26140335 0.78774446
0.35811442 -0.31817773 0.77620655
0.066133142 -0.061657235 0.80022353
0.1442517 -0.13043019 0.78630769
0.19840243 -0.17819464 0.77941382
0.32436168 -0.28928506 0.78108543
0.39807513 -0.354451 0.78055412
0.11917122 -0.10877523 0.79918271
0.22593954 -0.20319599 0.77544361
0.29094553 -0.26082763 0.78335541
0.3570016 -0.31942585 0.77620655
0.065917522 -0.061887704 0.80022353
0.14379555 -0.13093293 0.78630769
0.19777919 -0.1788861 0.77941382
0.32528988 -0.29215857 0.78535134
0.39683545 -0.35583839 0.78055412
0.11804226 -0.10850031 0.79428744
0.22522888 -0.20398344 0.77544361
0.29003334 -0.26184162 0.78335541
0.35588443 -0.32067004 0.77620655
0.06570109 -0.06211742 0.80022353
0.14333762 -0.13143408 0.78630769
0.19715357 -0.1795754 0.77941382
0.32426807 -0.29329228 0.78535134
0.3955909 -0.35722142 0.78055412
0.1176628 -0.10891169 0.79428744
0.22451547 -0.20476839 0.77544361
0.28911754 -0.26285243 0.78335541
0.35476291 -0.32191035 0.77620655
0.065483861 -0.062346384 0.80022353
0.14287797 -0.13193363 0.78630769
0.19652553 -0.18026249 0.77941382
0.39434159 -0.35860008 0.78055412
0.11728191 -0.10932174 0.79428744
0.22379933 -0.20555085 0.77544361
0.28643221 -0.26224232 0.77896631
0.3536371 -0.32314676 0.77620655
0.065265834 -0.06257458 0.80022353
0.14241655 -0.13243155 0.78630769
0.39308742 -0.35997444 0.78055412
0.11689959 -0.10973047 0.79428744
0.22308046 -0.20633081 0.77544361
0.28551507 -0.26324055 0.77896631
0.35250694 -0.32437924 0.77620655
0.064665563 -0.062429663 0.79525203
0.14195341 -0.13292788 0.78630769
0.39182845 -0.36134437 0.78055412
0.11651585 -0.11013786 0.79428744
0.22235888 -0.20710824 0.77544361
0.28459445 -0.26423562 0.77896631
0.35137251 -0.32560772 0.77620655
0.43195948 -0.39963132 0.7811833
0.064447246 -0.062655002 0.79525203
0.14148854 -0.13342258 0.78630769
0.3905648 -0.36270991 0.78055412
0.11613069 -0.11054391 0.79428744
0.22163457 -0.20788316 0.77544361
0.28367037 -0.26522738 0.77896631
0.35023373 -0.32683226 0.77620655
0.43056187 -0.4011367 0.7811833
0.064228147 -0.062879585 0.79525203
0.14102195 -0.13391565 0.78630769
0.38929629 -0.36407101 0.78055412
0.11647803 -0.11165437 0.79918271
0.22090758 -0.20865555 0.77544361
0.28274283 -0.26621595 0.77896631
0.34909078 -0.32805282 0.77620655
0.064385787 -0.063479736 0.80022353
0.14055364 -0.13440709 0.78630769
0.38802308 -0.36542767 0.78055412
0.11608757 -0.11206028 0.79918271
0.22017789 -0.20942536 0.77544361
0.2835494 -0.26884961 0.78335541
0.34794354 -0.32926941 0.77620655
0.42542133 -0.40193135 0.77734584
0.064163812 -0.063704096 0.80022353
0.14008361 -0.1348969 0.78630769
0.38455904 -0.36470613 0.77656412
0.1156957 -0.11246482 0.79918271
0.16867131 -0.16241728 0.79575157
0.21944551 -0.21019267 0.77544361
0.28260919 -0.26983774 0.78335541
0.34679204 -0.33048192 0.77620655
0.42401576 -0.40341386 0.77734584
0.063941054 -0.063927688 0.80022353
0.13961188 -0.13538507 0.78630769
0.25259256 -0.24224366 0.78745693
0.38328362 -0.36604625 0.77656412
0.11457594 -0.11215456 0.79428744
0.16703248 -0.16196516 0.79097962
0.22011605 -0.21231428 0.78004611
0.28339157 -0.27248296 0.78774446
0.34563631 -0.33169043 0.77620655
0.42260498 -0.40489152 0.77734584
0.063717514 -0.06415049 0.80022353
0.13913845 -0.13587156 0.78630769
0.1914157 -0.18567953 0.77941382
0.25174543 -0.24312389 0.78745693
0.38200355 -0.36738196 0.77656412
0.11418374 -0.11255382 0.79428744
0.1664661 -0.16254723 0.79097962
0.21937358 -0.21308133 0.78004611
0.2824387 -0.27347055 0.78774446
0.3444764 -0.33289492 0.77620655
0.4211891 -0.4063642 0.77734584
0.0634932 -0.06437251 0.80022353
0.13866332 -0.13635643 0.78630769
0.19076638 -0.18634656 0.77941382
0.2493351 -0.24248292 0.78295571
0.3828831 -0.37080973 0.78055412
0.11379017 -0.11295172 0.79428744
0.16589768 -0.16312732 0.79097962
0.22002454 -0.21521245 0.78464866
0.34331229 -0.33409533 0.77620655
0.41976804 -0.40783194 0.77734584
0.06326811 -0.064593762 0.80022353
0.1381865 -0.13683961 0.78630769
0.19011475 -0.18701133 0.77941382
0.24848714 -0.24335179 0.78295571
0.38158637 -0.37214398 0.78055412
0.11339518 -0.11334823 0.79428744
0.16532727 -0.16370539 0.79097962
0.21927199 -0.21597916 0.78464866
0.34214401 -0.33529168 0.77620655
0.41834188 -0.40929472 0.77734584
0.063042253 -0.06481421 0.80022353
0.13770799 -0.13732114 0.78630769
0.1894608 -0.18767379 0.77941382
0.24763618 -0.24421769 0.78295571
0.38028502 -0.37347367 0.78055412
0.11299884 -0.11374336 0.79428744
0.16475479 -0.16428152 0.79097962
0.21990322 -0.21811961 0.78925115
0.33896887 -0.33450702 0.77207357
0.41691062 -0.41075253 0.77734584
0.062815621 -0.065033875 0.80022353
0.13722782 -0.13780099 0.78630769
0.18880454 -0.188334 0.77941382
0.2467822 -0.24508061 0.78295571
0.37897906 -0.37479886 0.78055412
0.11260111 -0.1141371 0.79428744
0.16418035 -0.1648556 0.79097962
0.2191405 -0.21888587 0.78925115
0.33779919 -0.3356882 0.77207357
0.41547427 -0.41220531 0.77734584
0.06258823 -0.065252744 0.80022353
0.13586308 -0.13738449 0.78146827
0.18814598 -0.1889919 0.77941382
0.2459252 -0.24594057 0.78295571
0.37766844 -0.37611946 0.78055412
0.11220202 -0.11452947 0.79428744
0.1636039 -0.16542771 0.79097962
0.2183751 -0.21964949 0.78925115
0.27762297 -0.27835813 0.78774446
0.33662537 -0.33686528 0.77207357
0.41403291 -0.41365308 0.77734584
0.062360074 -0.065470822 0.80022353
0.13538267 -0.1378579 0.78146827
0.18748513 -0.18964751 0.77941382
0.24353179 -0.24525227 0.77845454
0.11180155 -0.11492042 0.79428744
0.16302545 -0.16599777 0.79097962
0.21623504 -0.21901965 0.78464866
0.27664959 -0.27932552 0.78774446
0.33544743 -0.3380383 0.77207357
0.41258645 -0.41509581 0.77734584
0.062131155 -0.065688103 0.80022353
0.13490064 -0.13832964 0.78146827
0.18561375 -0.1890687 0.77472109
0.24267423 -0.24610086 0.77845454
0.11139972 -0.11530998 0.79428744
0.16244502 -0.16656584 0.79097962
0.21546923 -0.21977311 0.78464866
0.27399394 -0.27858159 0.78335541
0.33426544 -0.33920717 0.77207357
0.41113499 -0.41653347 0.77734584
0.061901487 -0.06590458 0.80022353
0.13441697 -0.13879968 0.78146827
0.18495265 -0.18971546 0.77472109
0.24181369 -0.24694645 0.77845454
0.11099654 -0.11569814 0.79428744
0.16186261 -0.16713184 0.79097962
0.21470076 -0.22052389 0.78464866
0.27134684 -0.27782249 0.77896631
0.33307934 -0.34037191 0.77207357
0.06167106 -0.066120252 0.80022353
0.13393164 -0.13926804 0.78146827
0.18428928 -0.19035991 0.77472109
0.24095021 -0.24778903 0.77845454
0.110592 -0.11608489 0.79428744
0.16127822 -0.16769584 0.79097962
0.21392967 -0.22127199 0.78464866
0.2703754 -0.27876797 0.77896631
0.33188918 -0.3415325 0.77207357
0.061439883 -0.066335119 0.80022353
0.13344468 -0.13973469 0.78146827
0.18362367 -0.19100203 0.77472109
0.2400838 -0.2486286 0.77845454
0.11018611 -0.11647022 0.79428744
0.16069186 -0.16825777 0.79097962
0.21315598 -0.22201739 0.78464866
0.26940066 -0.27971005 0.77896631
0.33069497 -0.34268889 0.77207357
0.06120795 -0.066549182 0.80022353
0.13295612 -0.14019966 0.78146827
0.18295583 -0.19164184 0.77472109
0.23921447 -0.24946514 0.77845454
0.10977888 -0.11685413 0.79428744
0.21237969 -0.2227601 0.78464866
0.26842266 -0.28064877 0.77896631
0.32949677 -0.34384117 0.77207357
0.06097528 -0.066762432 0.80022353
0.13246591 -0.14066289 0.78146827
0.18228576 -0.19227931 0.77472109
0.2383422 -0.25029865 0.77845454
0.10937031 -0.11723661 0.79428744
0.21025825 -0.22208084 0.78004611
0.26579246 -0.27984706 0.77457726
0.32635498 -0.34295037 0.76794064
0.060741864 -0.066974871 0.80022353
0.1319741 -0.14112444 0.78146827
0.18161348 -0.19291443 0.77472109
0.23746705 -0.25112906 0.77845454
0.10896041 -0.11761768 0.79428744
0.20948176 -0.22281341 0.78004611
0.26481402 -0.28077313 0.77457726
0.32515588 -0.34408748 0.76794064
0.060507707 -0.06718649 0.80022353
0.13148068 -0.14158426 0.78146827
0.18093896 -0.19354722 0.77472109
0.236589 -0.25195643 0.77845454
0.10854919 -0.1179973 0.79428744
0.20870271 -0.22354329 0.78004611
0.2638323 -0.28169581 0.77457726
0.32395279 -0.34522039 0.76794064
0.060272813 -0.067397289 0.80022353
0.13098566 -0.14204235 0.78146827
0.18026227 -0.19417761 0.77472109
0.23570807 -0.25278077 0.77845454
0.10813665 -0.11837548 0.79428744
0.15773089 -0.17103663 0.79097962
0.20792115 -0.22427043 0.78004611
0.26447803 -0.28436917 0.77896631
0.32466388 -0.34840813 0.77207357
0.060037188 -0.067607269 0.80022353
0.13048904 -0.1424987 0.78146827
0.17958336 -0.19480567 0.77472109
0.23482427 -0.253602 0.77845454
0.10772278 -0.11875223 0.79428744
0.15713289 -0.17158616 0.79097962
0.20845966 -0.22643271 0.78464866
0.26348379 -0.28529063 0.77896631
0.32344571 -0.34953931 0.77207357
0.05980083 -0.067816429 0.80022353
0.12999083 -0.14295334 0.78146827
0.17890227 -0.19543135 0.77472109
0.23393761 -0.25442016 0.77845454
0.1073076 -0.11912753 0.79428744
0.15653299 -0.17213361 0.79097962
0.20766799 -0.22715899 0.78464866
0.26248634 -0.28620863 0.77896631
0.32222366 -0.35066622 0.77207357
0.059563741 -0.068024762 0.80022353
0.12949105 -0.14340621 0.78146827
0.17821899 -0.19605465 0.77472109
0.23304808 -0.2552352 0.77845454
0.29346716 -0.32058293 0.78108543
0.10689111 -0.11950137 0.79428744
0.15593119 -0.17267896 0.79097962
0.20687377 -0.2278825 0.78464866
0.26148567 -0.28712314 0.77896631
0.3209976 -0.35178882 0.77207357
0.05932593 -0.068232268 0.80022353
0.12898967 -0.14385734 0.78146827
0.17753355 -0.19667555 0.77472109
0.23215571 -0.25604713 0.77845454
0.2905924 -0.31967512 0.77681941
0.35681587 -0.39189112 0.77656412
0.10647333 -0.11987378 0.79428744
0.15532747 -0.17322221 0.79097962
0.20607708 -0.22860324 0.78464866
0.2604818 -0.28803414 0.77896631
0.31976768 -0.35290721 0.77207357
0.059087388 -0.068438932 0.80022353
0.12848672 -0.14430672 0.78146827
0.17684594 -0.19729407 0.77472109
0.23126054 -0.25685593 0.77845454
0.28947476 -0.32068753 0.77681941
0.35544574 -0.39313427 0.77656412
0.10605424 -0.1202447 0.79428744
0.15472189 -0.17376335 0.79097962
0.20527785 -0.22932118 0.78464866
0.25787506 -0.28715932 0.77457726
0.31853384 -0.35402125 0.77207357
0.058848131 -0.068644769 0.80022353
0.12798221 -0.14475437 0.78146827
0.17615619 -0.19791016 0.77472109
0.23036255 -0.25766164 0.77845454
0.28661317 -0.31975365 0.7725535
0.35407129 -0.39437261 0.77656412
0.10563386 -0.12061417 0.79428744
0.15411438 -0.17430237 0.79097962
0.20447612 -0.23003635 0.78464866
0.2568711 -0.28805768 0.77457726
0.31729615 -0.35513097 0.77207357
0.058608159 -0.068849765 0.80022353
0.12747616 -0.14520021 0.78146827
0.17546427 -0.19852386 0.77472109
0.22946171 -0.25846419 0.77845454
0.28549528 -0.32075214 0.7725535
0.35068759 -0.39335668 0.77257413
0.1052122 -0.12098217 0.79428744
0.15350501 -0.17483927 0.79097962
0.20367189 -0.2307487 0.78464866
0.25586405 -0.28895259 0.77457726
0.31605458 -0.3562364 0.77207357
0.058367468 -0.069053933 0.80022353
0.12696853 -0.14564431 0.78146827
0.17477022 -0.19913512 0.77472109
0.22855811 -0.25926358 0.77845454
0.28437394 -0.32174677 0.7725535
0.34931242 -0.3945784 0.77257413
0.10478925 -0.12134869 0.79428744
0.15289378 -0.17537403 0.79097962
0.20286517 -0.23145823 0.78464866
0.25485384 -0.28984395 0.77457726
0.31294933 -0.35522565 0.76794064
0.058126077 -0.069257252 0.80022353
0.12645936 -0.1460866 0.78146827
0.17407405 -0.19974397 0.77472109
0.22765172 -0.2600598 0.77845454
0.28324911 -0.32273746 0.7725535
0.34793293 -0.39579535 0.77257413
0.10436503 -0.12171373 0.79428744
0.15228067 -0.17590666 0.79097962
0.20205602 -0.23216495 0.78464866
0.25384057 -0.29073182 0.77457726
0.31170744 -0.35631588 0.76794064
0.057883967 -0.069459729 0.80022353
0.12594867 -0.14652716 0.78146827
0.17337574 -0.2003504 0.77472109
0.22674257 -0.26085287 0.77845454
0.28040773 -0.32175767 0.76828754
0.34654924 -0.39700744 0.77257413
0.079150639 -0.093796156 0.78082687
0.10393953 -0.12207729 0.79428744
0.15166572 -0.17643715 0.79097962
0.20124437 -0.23286885 0.78464866
0.25282416 -0.29161611 0.77457726
0.31046179 -0.35740176 0.76794064
0.057641156 -0.069661357 0.80022353
0.12543643 -0.14696591 0.78146827
0.17267534 -0.20095438 0.77472109
0.22583063 -0.26164275 0.77845454
0.27928287 -0.32273453 0.76828754
0.34318802 -0.39593747 0.76858407
0.078822747 -0.09407188 0.78082687
0.10351276 -0.12243937 0.79428744
0.15104891 -0.17696549 0.79097962
0.20043027 -0.23356991 0.78464866
0.25180471 -0.29249686 0.77457726
0.31104994 -0.36061448 0.77207357
0.057397641 -0.069862142 0.80022353
0.12492264 -0.14740285 0.78146827
0.17197283 -0.20155588 0.77472109
0.22491594 -0.26242948 0.77845454
0.27815461 -0.32370743 0.76828754
0.34180388 -0.39713299 0.76858407
0.078493893 -0.094346449 0.78082687
0.10308474 -0.12279995 0.79428744
0.15043028 -0.17749168 0.79097962
0.19961374 -0.23426811 0.78464866
0.25078216 -0.29337403 0.77457726
0.30978927 -0.36169806 0.77207357
0.057153426 -0.070062064 0.80022353
0.12440735 -0.14783803 0.78146827
0.17126822 -0.20215496 0.77472109
0.22399853 -0.26321298 0.77845454
0.27702299 -0.32467642 0.76828754
0.34041551 -0.39832368 0.76858407
0.078657269 -0.095220283 0.78576612
0.10200478 -0.12237585 0.78939223
0.14980979 -0.17801569 0.79097962
0.19879478 -0.23496348 0.78464866
0.24975656 -0.29424763 0.77457726
0.30852479 -0.3627772 0.77207357
0.056908518 -0.070261143 0.80022353
0.12308561 -0.14730597 0.77662885
0.17056152 -0.20275158 0.77472109
0.22307837 -0.26399326 0.77845454
0.27757341 -0.32763168 0.7725535
0.33902302 -0.39950952 0.76858407
0.078324407 -0.09549427 0.78576612
0.10157699 -0.12273116 0.78939223
0.14823119 -0.17739139 0.78620762
0.1979734 -0.23565598 0.78464866
0.24872792 -0.29511765 0.77457726
0.30725661 -0.36385193 0.77207357
0.05666291 -0.070459366 0.80022353
0.12257067 -0.14773472 0.77662885
0.16985276 -0.2033457 0.77472109
0.22215553 -0.26477036 0.77845454
0.27642807 -0.32859859 0.7725535
0.33956772 -0.40299505 0.77257413
0.078479573 -0.096370935 0.79070538
0.10114796 -0.12308498 0.78939223
0.14761107 -0.17790772 0.78620762
0.19589877 -0.23484483 0.78004611
0.24769625 -0.29598409 0.77457726
0.30598468 -0.36492226 0.77207357
0.056086313 -0.070238329 0.79525203
0.12205423 -0.14816166 0.77662885
0.16914189 -0.20393737 0.77472109
0.22122994 -0.26554424 0.77845454
0.2769509 -0.33156344 0.77681941
0.078629568 -0.097249828 0.79564464
0.10136013 -0.12422726 0.79428744
0.14604089 -0.1772691 0.78143567
0.19383225 -0.23402211 0.77544361
0.24666156 -0.2968469 0.77457726
0.30290881 -0.3638252 0.76794064
0.05584079 -0.070433684 0.79525203
0.12153631 -0.14858681 0.77662885
0.16842899 -0.20452654 0.77472109
0.22030167 -0.2663148 0.77845454
0.10092589 -0.12458032 0.79428744
0.14542121 -0.1777778 0.78143567
0.19301417 -0.23469728 0.77544361
0.24562387 -0.2977061 0.77457726
0.30163699 -0.36488032 0.76794064
0.055594593 -0.070628181 0.79525203
0.1210169 -0.14901015 0.77662885
0.16771404 -0.20511322 0.77472109
0.21937072 -0.26708218 0.77845454
0.10049041 -0.12493186 0.79428744
0.14479977 -0.17828433 0.78143567
0.19095872 -0.23385584 0.770841
0.24458317 -0.29856166 0.77457726
0.30214649 -0.36810645 0.77207357
0.055347715 -0.070821807 0.79525203
0.12049602 -0.14943168 0.77662885
0.16699705 -0.2056974 0.77472109
0.21843709 -0.26784632 0.77845454
0.099419564 -0.12448524 0.78939223
0.14417656 -0.17878869 0.78143567
0.19014126 -0.23452099 0.770841
0.24353951 -0.29941362 0.77457726
0.30085972 -0.36915886 0.77207357
0.055100165 -0.071014576 0.79525203
0.12075821 -0.15083344 0.78146827
0.166278 -0.20627907 0.77472109
0.21887019 -0.27029943 0.78295571
0.098984428 -0.12483151 0.78939223
0.14355159 -0.17929086 0.78143567
0.18932146 -0.23518327 0.770841
0.2424929 -0.30026188 0.77457726
0.29956928 -0.37020683 0.77207357
0.054851942 -0.07120648 0.79525203
0.12023097 -0.15125404 0.78146827
0.16555694 -0.20685823 0.77472109
0.21792535 -0.27106181 0.78295571
0.098548084 -0.12517627 0.78939223
0.14292486 -0.17979087 0.78143567
0.18849938 -0.23584269 0.770841
0.24144331 -0.30110651 0.77457726
0.2982752 -0.37125027 0.77207357
0.054603051 -0.071397513 0.79525203
0.12047993 -0.15266033 0.78630769
0.16590671 -0.20878653 0.77941382
0.098110534 -0.12551951 0.78939223
0.1422964 -0.18028867 0.78143567
0.18767497 -0.23649924 0.770841
0.24039078 -0.30194747 0.77457726
0.29697749 -0.37228918 0.77207357
0.054673478 -0.072014011 0.80022353
0.12072052 -0.1540702 0.79114711
0.1651769 -0.20936437 0.77941382
0.098294735 -0.12666664 0.79428744
0.14166623 -0.18078427 0.78143567
0.18684828 -0.23715292 0.770841
0.2393353 -0.30278477 0.77457726
0.29567614 -0.37332356 0.77207357
0.054421768 -0.072204418 0.80022353
0.16550843 -0.21129876 0.78410661
0.097851992 -0.12700896 0.79428744
0.14103431 -0.18127768 0.78143567
0.18601933 -0.2378037 0.770841
0.23827694 -0.30361837 0.77457726
0.29437119 -0.37435338 0.77207357
0.054169394 -0.072393946 0.80022353
0.16476984 -0.2118752 0.78410661
0.097408041 -0.12734976 0.79428744
0.14131227 -0.18295091 0.78620762
0.18518811 -0.23845156 0.770841
0.23721567 -0.30444825 0.77457726
0.29133135 -0.37316027 0.76794064
0.053916365 -0.072582595 0.80022353
0.16508317 -0.2138156 0.78879941
0.096962921 -0.127689 0.79428744
0.14067279 -0.18344307 0.78620762
0.18435463 -0.23909655 0.770841
0.2361515 -0.30527443 0.77457726
0.29002696 -0.37417492 0.76794064
0.053662676 -0.072770357 0.80022353
0.21220088 -0.27556625 0.78295571
0.096516609 -0.12802669 0.79428744
0.14093491 -0.18512134 0.79097962
0.1835189 -0.2397386 0.770841
0.23654275 -0.30799669 0.77896631
0.28871909 -0.37518501 0.76794064
0.053408336 -0.072957225 0.80022353
0.20991606 -0.27457544 0.77845454
0.09546034 -0.12754665 0.78939223
0.14028785 -0.18561217 0.79097962
0.18268095 -0.24037774 0.770841
0.2354662 -0.30882052 0.77896631
0.28740773 -0.37619057 0.76794064
0.05315334 -0.073143214 0.80022353
0.20895633 -0.27530649 0.77845454
0.095014527 -0.1278791 0.78939223
0.13963911 -0.18610075 0.79097962
0.18301678 -0.24257401 0.77544361
0.23438679 -0.30964056 0.77896631
0.28609282 -0.37719151 0.76794064
0.052897699 -0.073328309 0.80022353
0.20668454 -0.27429515 0.77395332
0.094567567 -0.12820998 0.78939223
0.13898863 -0.18658704 0.79097962
0.18216892 -0.24321137 0.77544361
0.2333045 -0.31045681 0.77896631
0.28477442 -0.37818787 0.76794064
0.052641414 -0.073512509 0.80022353
0.20572582 -0.27501497 0.77395332
0.093519256 -0.12771681 0.78449702
0.13744985 -0.1858702 0.78620762
0.18131883 -0.24384579 0.77544361
0.28345257 -0.3791796 0.76794064
0.052384481 -0.073695809 0.80022353
0.20476457 -0.27573141 0.77395332
0.093072869 -0.12804247 0.78449702
0.1368002 -0.18634887 0.78620762
0.17930695 -0.24290493 0.770841
0.28212726 -0.38016674 0.76794064
0.052126918 -0.073878221 0.80022353
0.20380084 -0.27644449 0.77395332
0.09262535 -0.12836657 0.78449702
0.13614888 -0.18682525 0.78620762
0.17845796 -0.24352936 0.770841
0.28079849 -0.38114923 0.76794064
0.051868722 -0.074059725 0.80022353
0.20411973 -0.27891135 0.77845454
0.071920156 -0.1013602 0.79070538
0.092768259 -0.12951785 0.78939223
0.13462189 -0.18608929 0.78143567
0.17760678 -0.2441508 0.770841
0.27946633 -0.38212708 0.76794064
0.20314491 -0.27962217 0.77845454
0.07112024 -0.10097416 0.78576612
0.092315592 -0.12984088 0.78939223
0.13484128 -0.18777119 0.78620762
0.17675346 -0.24476929 0.770841
0.2764779 -0.38082281 0.76380771
0.11360716 -0.15938783 0.79114711
0.20216762 -0.28032959 0.77845454
0.070767343 -0.1012218 0.78576612
0.091861807 -0.13016233 0.78939223
0.13418502 -0.18824072 0.78620762
0.17589799 -0.24538477 0.770841
0.2751469 -0.3817856 0.76380771
0.1130501 -0.15978342 0.79114711
0.20118783 -0.28103355 0.77845454
0.069972359 -0.10082863 0.78082687
0.091406889 -0.1304822 0.78939223
0.13352711 -0.18870798 0.78620762
0.17504035 -0.24599728 0.770841
0.27381256 -0.38274372 0.76380771
0.11177034 -0.15914768 0.78630769
0.20020562 -0.28173411 0.77845454
0.069619976 -0.10107225 0.78082687
0.090950869 -0.13080047 0.78939223
0.13201055 -0.18795076 0.78143567
0.1741806 -0.24660678 0.770841
0.27247486 -0.38369712 0.76380771
0.11121413 -0.15953685 0.78630769
0.19922097 -0.28243124 0.77845454
0.069266744 -0.10131466 0.78082687
0.090493739 -0.13111715 0.78939223
0.13220644 -0.18963556 0.78620762
0.17331871 -0.24721329 0.770841
0.27113384 -0.38464591 0.76380771
0.10994244 -0.15888968 0.78146827
0.15345535 -0.22020823 0.78410661
0.06891267 -0.10155582 0.78082687
0.090035498 -0.13143224 0.78939223
0.13069521 -0.18886778 0.78143567
0.17133947 -0.24621272 0.76623851
0.26817667 -0.38328403 0.75967473
0.10938714 -0.15927249 0.78146827
0.15170486 -0.21932279 0.77941382
0.068557754 -0.10179576 0.78082687
0.090147302 -0.13258865 0.79428744
0.13003513 -0.18932284 0.78143567
0.17047897 -0.24680932 0.76623851
0.21985103 -0.31721529 0.77457726
0.26683712 -0.38421783 0.75967473
0.10812362 -0.15861399 0.77662885
0.15093835 -0.219851 0.77941382
0.068202004 -0.10203446 0.78082687
0.089683935 -0.13290252 0.79428744
0.13021336 -0.19100961 0.78620762
0.16961642 -0.24740289 0.76623851
0.2187424 -0.31798077 0.77457726
0.26549432 -0.38514692 0.75967473
0.10756931 -0.15899044 0.77662885
0.14919904 -0.21894996 0.77472109
0.067845419 -0.1022719 0.78082687
0.089219473 -0.13321477 0.79428744
0.12954584 -0.19146295 0.78620762
0.16875179 -0.24799344 0.76623851
0.21628112 -0.31676409 0.77018815
0.26414829 -0.38607129 0.75967473
0.10701367 -0.15936495 0.77662885
0.14843385 -0.2194694 0.77472109
0.067488015 -0.1025081 0.78082687
0.088753931 -0.13352539 0.79428744
0.12887672 -0.19191399 0.78620762
0.16788509 -0.24858101 0.76623851
0.21517409 -0.31751713 0.77018815
0.26444748 -0.38927314 0.76380771
0.10651249 -0.15970036 0.77662885
0.14774364 -0.21993464 0.77472109
0.067147709 -0.10273134 0.78082687
0.088310651 -0.13381898 0.79428744
0.1282396 -0.19234031 0.78620762
0.16814724 -0.25075945 0.770841
0.21411997 -0.31822896 0.77018815
0.26308703 -0.39019382 0.76380771
0.10592644 -0.16008967 0.77662885
0.14693655 -0.22047468 0.77472109
0.19226111 -0.28721437 0.77845454
0.066770732 -0.10297675 0.78082687
0.087263249 -0.13328896 0.78939223
0.12753376 -0.19280905 0.78620762
0.16722701 -0.25137404 0.770841
0.21295218 -0.3190116 0.77018815
0.26321939 -0.39349473 0.76794064
0.10533897 -0.16047685 0.77662885
0.14517651 -0.21957172 0.77002829
0.19125736 -0.28788373 0.77845454
0.066410869 -0.1032092 0.78082687
0.086797453 -0.13359277 0.78939223
0.12685996 -0.19325304 0.78620762
0.16742429 -0.25358707 0.77544361
0.21183732 -0.31975299 0.77018815
0.26184419 -0.39441112 0.76794064
0.10477816 -0.16084357 0.77662885
0.14440918 -0.22007714 0.77002829
0.19025131 -0.28854957 0.77845454
0.066050202 -0.10344039 0.78082687
0.086330593 -0.13389492 0.78939223
0.12618461 -0.1936947 0.78620762
0.16653807 -0.25416994 0.77544361
0.2107199 -0.32049051 0.77018815
0.26046586 -0.39532277 0.76794064
0.10421608 -0.16120833 0.77662885
0.1436401 -0.22057988 0.77002829
0.18805154 -0.2873899 0.77395332
0.23557617 -0.35901725 0.7725535
0.065688714 -0.10367031 0.78082687
0.086410068 -0.13505402 0.79428744
0.12469824 -0.19287981 0.78143567
0.16671416 -0.25638801 0.78004611
0.20829162 -0.31921801 0.76579911
0.25908437 -0.39622954 0.76794064
0.10365272 -0.16157113 0.77662885
0.14286926 -0.22107993 0.77002829
0.18704721 -0.2880446 0.77395332
0.23289879 -0.35765159 0.76828754
0.085938118 -0.13535483 0.79428744
0.1240242 -0.19331393 0.78143567
0.16581818 -0.25696838 0.78004611
0.20717606 -0.31994313 0.76579911
0.25769967 -0.39713147 0.76794064
0.1030881 -0.16193196 0.77662885
0.14209667 -0.2215773 0.77002829
0.1860406 -0.28869575 0.77395332
0.23164895 -0.35846236 0.76828754
0.085465118 -0.13565399 0.79428744
0.12334865 -0.19374567 0.78143567
0.20605803 -0.32066435 0.76579911
0.25631183 -0.39802858 0.76794064
0.10252222 -0.16229083 0.77662885
0.14132236 -0.22207196 0.77002829
0.18385951 -0.28750902 0.7694521
0.22898883 -0.35707313 0.76402164
0.085014813 -0.13593665 0.79428744
0.12350202 -0.19541606 0.78620762
0.20504959 -0.32131013 0.76579911
0.25512975 -0.39878735 0.76794064
0.10212536 -0.16254085 0.77662885
0.14077932 -0.22241661 0.77002829
0.18315645 -0.2879574 0.7694521
0.22817807 -0.35759178 0.76402164
0.08475367 -0.13609961 0.79428744
0.12312663 -0.19565281 0.78620762
0.16356944 -0.25840563 0.78004611
0.20309253 -0.31971693 0.76141
0.25422427 -0.39936516 0.76794064
0.10167105 -0.16282541 0.77662885
0.14015765 -0.22280888 0.77002829
0.18230124 -0.28849956 0.7694521
0.22705355 -0.35830685 0.76402164
0.084254272 -0.13640934 0.79428744
0.16262124 -0.2590034 0.78004611
0.20191935 -0.32045919 0.76141
0.2527588 -0.4002943 0.76794064
0.1010736 -0.16319695 0.77662885
0.13934009 -0.22332108 0.77002829
0.18129309 -0.28913417 0.7694521
0.22580142 -0.35909721 0.76402164
0.08303348 -0.1359642 0.78939223
0.16130823 -0.25982317 0.78004611
0.20029479 -0.32147706 0.76141
0.2507295 -0.40156847 0.76794064
0.10024629 -0.16370645 0.77662885
0.13820797 -0.22402349 0.77002829
0.17982732 -0.29004806 0.7694521
0.22398098 -0.36023551 0.76402164
0.082582146 -0.1362388 0.78939223
0.15946661 -0.25866523 0.77544361
0.20054342 -0.32414177 0.76579911
0.24953693 -0.40231064 0.76794064
0.099845983 -0.16395091 0.77662885
0.13766016 -0.22436051 0.77002829
0.17911808 -0.2904866 0.7694521
0.22316305 -0.36074278 0.76402164
0.082296625 -0.13641147 0.78939223
0.15887929 -0.25902635 0.77544361
0.19980747 -0.32459593 0.76579911
0.24855316 -0.40291917 0.76794064
0.099330418 -0.16426377 0.77662885
0.13691539 -0.22481577 0.77002829
0.17810299 -0.29111007 0.7694521
0.22183937 -0.36155826 0.76402164
0.08172451 -0.136755 0.78939223
0.15783823 -0.25966206 0.77544361
0.19850284 -0.32539538 0.76579911
0.24546635 -0.40151253 0.76380771
0.09875644 -0.16460948 0.77662885
0.13616912 -0.22526857 0.77002829
0.17718756 -0.29166815 0.7694521
0.22070241 -0.36225343 0.76402164
0.081366204 -0.13696848 0.78939223
0.15711249 -0.2601018 0.77544361
0.1988344 -0.32799682 0.77018815
0.24434416 -0.40219644 0.76380771
0.098238811 -0.16491893 0.77662885
0.13546076 -0.22569525 0.77002829
0.17627038 -0.29222336 0.7694521
0.21821381 -0.36071324 0.75975573
0.080887593 -0.13725168 0.78939223
0.15520003 -0.25897247 0.770841
0.19768828 -0.32868886 0.77018815
0.24293874 -0.40304691 0.76380771
0.097662531 -0.16526084 0.77662885
0.13467211 -0.22616673 0.77002829
0.17524926 -0.29283687 0.7694521
0.21695337 -0.36147279 0.75975573
0.080408014 -0.13753317 0.78939223
0.1542951 -0.25951263 0.770841
0.19653973 -0.32937691 0.77018815
0.24008653 -0.4014771 0.75967473
0.097085074 -0.16560073 0.77662885
0.13300495 -0.22514915 0.76533556
0.17422602 -0.29344684 0.7694521
0.21569027 -0.36222789 0.75975573
0.079927444 -0.13781302 0.78939223
0.15338831 -0.26004964 0.770841
0.19538878 -0.33006096 0.77018815
0.23868363 -0.40231273 0.75967473
0.096506424 -0.16593863 0.77662885
0.13221823 -0.22561207 0.76533556
0.17320062 -0.29405323 0.7694521
0.21575056 -0.3652243 0.76402164
0.079445899 -0.13809118 0.78939223
0.15247962 -0.26058349 0.770841
0.19423546 -0.33074099 0.77018815
0.23585089 -0.400718 0.75554174
0.095926613 -0.16627447 0.77662885
0.13142988 -0.22607222 0.76533556
0.17217313 -0.29465601 0.7694521
0.21447437 -0.3659752 0.76402164
0.078963391 -0.13836765 0.78939223
0.15156908 -0.26111415 0.770841
0.19307978 -0.33141696 0.77018815
0.23445067 -0.40153882 0.75554174
0.095345616 -0.16660832 0.77662885
0.13063994 -0.22652963 0.76533556
0.17114355 -0.29525518 0.7694521
0.21319558 -0.36672163 0.76402164
0.077979766 -0.13775556 0.78449702
0.15163088 -0.26333508 0.77544361
0.19192174 -0.33208895 0.77018815
0.23163764 -0.39991948 0.75140882
0.094763465 -0.16694012 0.77662885
0.13070445 -0.22848262 0.77002829
0.17011186 -0.29585081 0.7694521
0.21191417 -0.36746359 0.76402164
0.077498429 -0.13802692 0.78449702
0.11412447 -0.2010368 0.78620762
0.15071075 -0.26386279 0.77544361
0.19076137 -0.33275685 0.77018815
0.23024024 -0.4007256 0.75140882
0.094180152 -0.1672699 0.77662885
0.12990609 -0.22893746 0.77002829
0.16907811 -0.29644281 0.7694521
0.21063019 -0.36820108 0.76402164
0.07701616 -0.13829659 0.78449702
0.11269061 -0.20013271 0.78143567
0.14978878 -0.26438725 0.77544361
0.18959866 -0.33342072 0.77018815
0.22884004 -0.40152684 0.75140882
0.093595698 -0.16759762 0.77662885
0.12910616 -0.22938953 0.77002829
0.1680423 -0.29703119 0.7694521
0.20934364 -0.36893407 0.76402164
0.076532945 -0.13856459 0.78449702
0.11199134 -0.20052484 0.78143567
0.1479086 -0.26320493 0.770841
0.1872576 -0.33199418 0.76579911
0.22743705 -0.40232322 0.75140882
0.093010105 -0.1679233 0.77662885
0.12830466 -0.2298388 0.77002829
0.16700445 -0.29761598 0.7694521
0.20805456 -0.36966255 0.76402164
0.076048791 -0.1388309 0.78449702
0.11129069 -0.20091455 0.78143567
0.14698893 -0.26371962 0.770841
0.18609758 -0.33264577 0.76579911
0.22740716 -0.4055694 0.75554174
0.092423372 -0.16824694 0.77662885
0.12750159 -0.23028526 0.77002829
0.16596457 -0.29819712 0.7694521
0.20676292 -0.37038654 0.76402164
0.075563721 -0.1390955 0.78449702
0.11058869 -0.2013018 0.78143567
0.14606749 -0.26423109 0.770841
0.1849353 -0.33329338 0.76579911
0.22599006 -0.40636075 0.75554174
0.091835521 -0.16856854 0.77662885
0.12669697 -0.23072892 0.77002829
0.16492265 -0.29877463 0.7694521
0.20546877 -0.37110603 0.76402164
0.075559191 -0.1402556 0.78939223
0.10988534 -0.20168661 0.78143567
0.14514425 -0.26473936 0.770841
0.18377076 -0.3339369 0.76579911
0.22592892 -0.40961143 0.75967473
0.091246545 -0.16888808 0.77662885
0.12589081 -0.23116979 0.77002829
0.16387872 -0.29934847 0.7694521
0.20417212 -0.37182102 0.76402164
0.075069144 -0.14051849 0.78939223
0.10847207 -0.20075516 0.77666366
0.14421926 -0.26524439 0.770841
0.18260399 -0.33457634 0.76579911
0.22449772 -0.41039756 0.75967473
0.090656459 -0.16920558 0.77662885
0.1250831 -0.23160781 0.77002829
0.16283281 -0.29991871 0.7694521
0.20287298 -0.37253141 0.76402164
0.10777064 -0.20113258 0.77666366
0.14421901 -0.26746619 0.77544361
0.18143497 -0.33521169 0.76579911
0.22440524 -0.41365245 0.76380771
0.090065271 -0.16952099 0.77662885
0.12427387 -0.23204303 0.77002829
0.1617849 -0.30048525 0.7694521
0.20157136 -0.37323728 0.76402164
0.10706791 -0.20150754 0.77666366
0.1432845 -0.267968 0.77544361
0.18139587 -0.33795348 0.77018815
0.22295995 -0.41443324 0.76380771
0.089472979 -0.16983435 0.77662885
0.12346314 -0.23247541 0.77002829
0.16073504 -0.30104816 0.7694521
0.2002673 -0.37393865 0.76402164
0.10636386 -0.20188004 0.77666366
0.14234826 -0.2684665 0.77544361
0.18021509 -0.33858463 0.77018815
0.088879608 -0.17014562 0.77662885
0.1226509 -0.23290496 0.77002829
0.1596832 -0.3016074 0.7694521
0.1989608 -0.37463543 0.76402164
0.10634869 -0.20357364 0.78143567
0.14141026 -0.26896176 0.77544361
0.17903212 -0.33921161 0.77018815
0.088285141 -0.17045483 0.77662885
0.12183716 -0.23333167 0.77002829
0.15862942 -0.30216298 0.7694521
0.19765186 -0.37532765 0.76402164
0.10563745 -0.20394364 0.78143567
0.14047055 -0.26945373 0.77544361
0.17784697 -0.33983448 0.77018815
0.087689608 -0.17076197 0.77662885
0.12102194 -0.23375556 0.77002829
0.1575737 -0.30271485 0.7694521
0.19513385 -0.37370324 0.75975573
0.10492489 -0.20431113 0.78143567
0.13952912 -0.26994243 0.77544361
0.17665964 -0.34045324 0.77018815
0.087093003 -0.17106701 0.77662885
0.12020524 -0.23417656 0.77002829
0.15651606 -0.30326304 0.7694521
0.1938282 -0.37438211 0.75975573
0.071613565 -0.14231065 0.78939223
0.10421108 -0.20467615 0.78143567
0.13769571 -0.2686888 0.770841
0.17437506 -0.33893788 0.76579911
0.086495347 -0.17136998 0.77662885
0.11938708 -0.23459473 0.77002829
0.15545654 -0.30380753 0.7694521
0.19252019 -0.37505642 0.75975573
0.071116373 -0.14255977 0.78939223
