# .PCD v0.7 - Point Cloud Data file format
VERSION 0.7
FIELDS x y z
SIZE 4 4 4
TYPE F F F
COUNT 1 1 1
WIDTH 1428
HEIGHT 1
VIEWPOINT 0 0 0 1 0 0 0
POINTS 1428
DATA ascii
0.25449297 0.19316946 0.72443992
0.11513779 0.084691808 0.90924758
0.14424475 0.10713332 0.8872968
0.18968463 0.14232412 0.80529559
0.23477376 0.17713672 0.75243098
0.2752614 0.20837659 0.69996291
0.055336505 0.038214076 1.0027518
0.08721704 0.06280078 0.95931166
0.21195644 0.15897769 0.77472109
0.25516573 0.19227993 0.72443992
0.11606132 0.084746093 0.91418684
0.14461784 0.10662916 0.8872968
0.1901803 0.14166111 0.80529559
0.23539063 0.17631613 0.75243098
0.27407208 0.20597613 0.69557387
0.055469558 0.038020682 1.0027518
0.087435722 0.062495954 0.95931166
0.21251008 0.15823685 0.77472109
0.25583535 0.19138806 0.72443992
0.019856412 0.010798692 1.0492337
0.11635643 0.084340446 0.91418684
0.14498915 0.10612371 0.8872968
0.1906736 0.1409964 0.80529559
0.23600467 0.17549337 0.75243098
0.27478939 0.20501819 0.69557387
0.055601936 0.037826825 1.0027518
0.087653346 0.062190361 0.95931166
0.21306112 0.15749408 0.77472109
0.25650185 0.19049387 0.72443992
0.33062991 0.24662352 0.6209532
0.019893985 0.010729314 1.0492337
0.11665012 0.083933778 0.91418684
0.14535873 0.10561695 0.8872968
0.19116464 0.14032996 0.80529559
0.23661581 0.17466852 0.75243098
0.27357841 0.20263283 0.69118476
0.05573364 0.03763251 1.0027518
0.08786989 0.061884016 0.95931166
0.21221775 0.15572922 0.77002829
0.019931316 0.010659805 1.0492337
0.1169424 0.083526075 0.91418684
0.1457265 0.10510891 0.8872968
0.1916533 0.13966183 0.80529559
0.23722407 0.17384151 0.75243098
0.27428406 0.20167662 0.69118476
0.055864662 0.037437733 1.0027518
0.088085383 0.061576918 0.95931166
0.21276005 0.15498751 0.77002829
0.019968405 0.010590168 1.0492337
0.11659833 0.082669474 0.90924758
0.1460925 0.10459959 0.8872968
0.19334972 0.13986599 0.81006759
0.23782945 0.17301236 0.75243098
0.27498636 0.20071796 0.69118476
0.056237556 0.037399054 1.0077435
0.088299781 0.061269067 0.95931166
0.21329975 0.15424389 0.77002829
0.020005248 0.0105204 1.0492337
0.1168862 0.082261972 0.90924758
0.14645675 0.10408899 0.8872968
0.19383678 0.13919023 0.81006759
0.23843193 0.17218113 0.75243098
0.27568534 0.19975685 0.69118476
0.056367762 0.037202518 1.0077435
0.088513114 0.060960472 0.95931166
0.21383688 0.1534984 0.77002829
0.020041849 0.010450505 1.0492337
0.11717264 0.081853457 0.90924758
0.14681919 0.10357713 0.8872968
0.19432144 0.13851276 0.81006759
0.23903149 0.17134781 0.75243098
0.27638093 0.19879332 0.69118476
0.31557232 0.22744507 0.64395213
0.05649728 0.037005533 1.0077435
0.088725373 0.060651131 0.95931166
0.21437138 0.15275101 0.77002829
0.020078208 0.010380482 1.0492337
0.11745764 0.081443951 0.90924758
0.14634499 0.10248115 0.88240159
0.19480377 0.13783361 0.81006759
0.23962817 0.17051238 0.75243098
0.27707317 0.19782737 0.69118476
0.31636435 0.22634214 0.64395213
0.056626108 0.036808096 1.0077435
0.08893653 0.060341053 0.95931166
0.21490328 0.1520018 0.77002829
0.020114321 0.010310332 1.0492337
0.11774121 0.081033446 0.90924758
0.14670181 0.1019697 0.88240159
0.1952837 0.13715276 0.81006759
0.2402219 0.16967487 0.75243098
0.27580762 0.19547467 0.68679571
0.31715247 0.22523645 0.64395213
0.056754246 0.036610208 1.0077435
0.089146629 0.060030241 0.95931166
0.21543255 0.15125072 0.77002829
0.020150188 0.010240057 1.0492337
0.11802335 0.080621965 0.90924758
0.14705686 0.10145699 0.88240159
0.19453613 0.13561749 0.80529559
0.2408127 0.16883533 0.75243098
0.27648827 0.19451073 0.68679571
0.31563643 0.2225071 0.6398192
0.056881696 0.036411878 1.0077435
0.089355633 0.059718691 0.95931166
0.21595921 0.15049779 0.77002829
0.02018581 0.010169659 1.0492337
0.11830406 0.080209494 0.90924758
0.14656916 0.10036895 0.87750632
0.19500832 0.13493763 0.80529559
0.24140058 0.16799369 0.75243098
0.27716556 0.19354442 0.68679571
0.3164112 0.22140397 0.6398192
0.057008449 0.036213104 1.0077435
0.089563541 0.059406422 0.95931166
0.21648321 0.14974304 0.77002829
0.26235884 0.18234295 0.72443992
0.33574238 0.23439203 0.61696315
0.020221185 0.010099134 1.0492337
0.11858333 0.079796053 0.90924758
0.14691862 0.099856719 0.87750632
0.19547817 0.13425609 0.80529559
0.24198553 0.16715002 0.75243098
0.27783948 0.19257575 0.68679571
0.31718212 0.22029814 0.6398192
0.057134509 0.036013883 1.0077435
0.089770362 0.059093419 0.95931166
0.21700461 0.14898644 0.77002829
0.26299372 0.18142603 0.72443992
0.33655852 0.23321865 0.61696315
0.020256314 0.010028488 1.0492337
0.11886115 0.079381637 0.90924758
0.14726628 0.09934327 0.87750632
0.19594564 0.13357292 0.80529559
0.24256751 0.16630432 0.75243098
0.27850997 0.19160475 0.68679571
0.31794918 0.21918963 0.6398192
0.057259873 0.035814229 1.0077435
0.089976087 0.058779702 0.95931166
0.21752335 0.14822806 0.77002829
0.26362541 0.18050693 0.72443992
0.33737054 0.23204242 0.61696315
0.020291196 0.0099577187 1.0492337
0.11913751 0.078966245 0.90924758
0.14761217 0.098828606 0.87750632
0.19641067 0.13288814 0.80529559
0.24314654 0.16545661 0.75243098
0.28115538 0.19198139 0.69118476
0.31871235 0.21807845 0.6398192
0.057384536 0.035614137 1.0077435
0.090180725 0.058465272 0.95931166
0.21803942 0.14746787 0.77002829
0.26245299 0.17836259 0.71993876
0.33817849 0.23086336 0.61696315
0.020325832 0.0098868292 1.0492337
0.11941243 0.078549892 0.90924758
0.14795624 0.098312743 0.87750632
0.19687335 0.13220173 0.80529559
0.24372262 0.16460685 0.75243098
0.28182381 0.19099881 0.69118476
0.31947166 0.21696459 0.6398192
0.057508506 0.035413608 1.0077435
0.09038426 0.058150128 0.95931166
0.21855286 0.14670588 0.77002829
0.26307398 0.17744537 0.71993876
0.33898228 0.22968149 0.61696315
0.02036022 0.0098158186 1.0492337
0.11968589 0.078132592 0.90924758
0.14829852 0.097795688 0.87750632
0.19733362 0.1315137 0.80529559
0.24429572 0.16375509 0.75243098
0.28248879 0.19001389 0.69118476
0.32022709 0.2158481 0.6398192
0.057631772 0.035212651 1.0077435
0.090586685 0.057834275 0.95931166
0.21906361 0.14594209 0.77002829
0.26369178 0.17652601 0.71993876
0.020394359 0.0097446879 1.0492337
0.11995789 0.077714339 0.90924758
0.14863898 0.097277433 0.87750632
0.19779149 0.13082407 0.80529559
0.24486585 0.16290133 0.75243098
0.28315037 0.18902667 0.69118476
0.32097855 0.21472901 0.6398192
0.057754338 0.035011262 1.0077435
0.090788014 0.057517711 0.95931166
0.21957172 0.14517651 0.77002829
0.26249272 0.1744004 0.71543753
0.020428251 0.009673439 1.0492337
0.12022844 0.077295125 0.90924758
0.14897764 0.096757993 0.87750632
0.19824694 0.13013287 0.80529559
0.24543297 0.16204561 0.75243098
0.28380844 0.18803714 0.69118476
0.32172614 0.21360725 0.6398192
0.057876196 0.034809448 1.0077435
0.090535641 0.056918848 0.95434016
0.22152048 0.14535512 0.77472109
0.26309991 0.17348307 0.71543753
0.020461893 0.0096020736 1.0492337
0.12049752 0.076874986 0.90924758
0.14931446 0.096237361 0.87750632
0.19869998 0.12944007 0.80529559
0.24599713 0.1611879 0.75243098
0.28446311 0.18704532 0.69118476
0.32246983 0.21248291 0.6398192
0.05799735 0.034607209 1.0077435
0.090733774 0.056602471 0.95434016
0.22202651 0.14458099 0.77472109
0.26370385 0.17256363 0.71543753
0.34215611 0.22492617 0.61696315
0.020495284 0.009530589 1.0492337
0.12076513 0.076453894 0.90924758
0.1496495 0.095715582 0.87750632
0.19915059 0.12874569 0.80529559
0.24655828 0.16032822 0.75243098
0.28511429 0.1860512 0.69118476
0.3208541 0.20981638 0.63568628
0.058117799 0.034404553 1.0077435
0.090930797 0.056285407 0.95434016
0.22252983 0.14380509 0.77472109
0.26430464 0.17164208 0.71543753
0.34293917 0.22373046 0.61696315
0.020528428 0.009458988 1.0492337
0.12103126 0.076031886 0.90924758
0.14998269 0.095192619 0.87750632
0.19959879 0.12804973 0.80529559
0.24547443 0.15840802 0.74782842
0.28576198 0.18505482 0.69118476
0.32158452 0.20869511 0.63568628
0.058237538 0.034201473 1.0077435
0.091582239 0.056244507 0.95931166
0.22448361 0.1439582 0.77941382
0.26490214 0.17071842 0.71543753
0.3058846 0.19768693 0.66590512
0.34371802 0.22253199 0.61696315
0.020561323 0.0093872733 1.0492337
0.12195628 0.076018378 0.91418684
0.15031408 0.094668508 0.87750632
0.20130435 0.12815294 0.81006759
0.24602588 0.15755017 0.74782842
0.28640619 0.18405624 0.69118476
0.32231104 0.2075713 0.63568628
0.058356572 0.033997979 1.0077435
0.09177801 0.055924483 0.95931166
0.22498475 0.14317372 0.77941382
0.26733086 0.17096496 0.71993876
0.30657282 0.19661796 0.66590512
0.020593964 0.0093154442 1.0492337
0.1222209 0.07559222 0.91418684
0.1506436 0.094143227 0.87750632
0.203013 0.12824577 0.81483954
0.24657434 0.15669042 0.74782842
0.28704694 0.18305534 0.69118476
0.32303363 0.20644496 0.63568628
0.058222987 0.033653054 1.0027518
0.091972664 0.05560378 0.95931166
0.22548315 0.14238749 0.77941382
0.26792598 0.17003074 0.71993876
0.30725726 0.19554663 0.66590512
0.020626355 0.0092435014 1.0492337
0.12248401 0.075165123 0.91418684
0.15097131 0.093616821 0.87750632
0.20345943 0.12753634 0.81483954
0.24711978 0.15582876 0.74782842
0.28768417 0.18205227 0.69118476
0.32375231 0.20531613 0.63568628
0.058592498 0.033589751 1.0077435
0.092166193 0.055282395 0.95931166
0.22597881 0.14159957 0.77941382
0.26851785 0.16909447 0.71993876
0.30573258 0.19308084 0.66163921
0.020658497 0.0091714449 1.0492337
0.12274565 0.074737117 0.91418684
0.15216516 0.093621582 0.88240159
0.24766223 0.15496521 0.74782842
0.28628924 0.17977388 0.68679571
0.32446703 0.20418476 0.63568628
0.05870939 0.033385016 1.0077435
0.091899261 0.054689877 0.95434016
0.30640468 0.19201246 0.66163921
0.020690383 0.0090992777 1.0492337
0.12233977 0.073908016 0.90924758
0.15249103 0.093089856 0.88240159
0.24820165 0.15409976 0.74782842
0.28691506 0.17877346 0.68679571
0.32517779 0.20305091 0.63568628
0.058825567 0.033179879 1.0077435
0.092089608 0.054368757 0.95434016
0.30707306 0.19094174 0.66163921
0.02072202 0.0090269987 1.0492337
0.12259702 0.073480524 0.90924758
0.15281506 0.092556991 0.88240159
0.24873805 0.15323244 0.74782842
0.28753734 0.17777087 0.68679571
0.32588455 0.20191458 0.63568628
0.058941029 0.03297434 1.0077435
0.092278831 0.054046974 0.95434016
0.30773771 0.1898687 0.66163921
0.020753402 0.0089546107 1.0492337
0.12285277 0.073052131 0.90924758
0.15313722 0.092023008 0.88240159
0.24927141 0.15236323 0.74782842
0.28815612 0.17676608 0.68679571
0.32658741 0.2007758 0.63568628
0.059055775 0.032768399 1.0077435
0.092466921 0.053724527 0.95434016
0.3083986 0.18879333 0.66163921
0.34648344 0.21249293 0.61297315
0.020784535 0.0088821128 1.0492337
0.12310702 0.072622851 0.90924758
0.15345749 0.091487899 0.88240159
0.20565425 0.12396606 0.81483954
0.24980174 0.15149221 0.74782842
0.28672516 0.17451453 0.68240654
0.32728624 0.19963458 0.63568628
0.058914993 0.032426342 1.0027518
0.0926539 0.053401429 0.95434016
0.30905575 0.18771568 0.66163921
0.34722304 0.21128218 0.61297315
0.020815413 0.0088095078 1.0492337
0.12335976 0.072192676 0.90924758
0.15377592 0.090951674 0.88240159
0.20480409 0.12248222 0.81006759
0.25032902 0.1506193 0.74782842
0.28733259 0.17351261 0.68240654
0.32798111 0.19849093 0.63568628
0.059027825 0.032220498 1.0027518
0.092839733 0.053077683 0.95434016
0.31194317 0.18798129 0.66590512
0.34795845 0.21006887 0.61297315
0.020846037 0.0087367948 1.0492337
0.1242839 0.072150134 0.91418684
0.15409246 0.090414345 0.88240159
0.20394608 0.12100582 0.80529559
0.25085327 0.14974459 0.74782842
0.28793651 0.17250858 0.68240654
0.32867196 0.19734484 0.63568628
0.059139933 0.032014254 1.0027518
0.093024448 0.052753285 0.95434016
0.31259748 0.18689126 0.66590512
0.34868959 0.20885299 0.61297315
0.020876408 0.0086639747 1.0492337
0.12453499 0.071715862 0.91418684
0.15352638 0.089364946 0.87750632
0.20308027 0.11953693 0.80052364
0.25137442 0.14886801 0.74782842
0.28853694 0.17150243 0.68240654
0.32935885 0.19619636 0.63568628
0.059251323 0.03180762 1.0027518
0.093208022 0.052428249 0.95434016
0.31324795 0.18579896 0.66590512
0.34941649 0.20763454 0.61297315
0.020906523 0.0085910503 1.0492337
0.12546018 0.071664512 0.91912609
0.1538374 0.088828497 0.87750632
0.20349629 0.11882731 0.80052364
0.25189254 0.14798965 0.74782842
0.28913385 0.17049421 0.68240654
0.33004168 0.19504547 0.63568628
0.059361994 0.031600602 1.0027518
0.093390465 0.052102573 0.95434016
0.020936383 0.0085180206 1.0492337
0.12570956 0.071226135 0.91912609
0.15414652 0.088290967 0.87750632
0.20390984 0.11811625 0.80052364
0.25240758 0.14710948 0.74782842
0.28972721 0.16948391 0.68240654
0.33072051 0.19389224 0.63568628
0.059471935 0.031393196 1.0027518
0.093571767 0.051776264 0.95434016
0.18279967 0.10501217 0.84922016
0.02096599 0.0084448876 1.0492337
0.12663569 0.071165957 0.92406535
0.15445378 0.087752357 0.87750632
0.20432091 0.11740376 0.80052364
0.25291958 0.14622752 0.74782842
0.29031706 0.16847154 0.68240654
0.33139533 0.19273663 0.63568628
0.059581157 0.031185409 1.0027518
0.093751937 0.051449317 0.95434016
0.18316513 0.10437344 0.84922016
0.020995341 0.0083716502 1.0492337
0.12688333 0.070723474 0.92406535
0.15475915 0.087212674 0.87750632
0.20602685 0.11742805 0.80529559
0.25342846 0.14534377 0.74782842
0.29090336 0.16745712 0.68240654
0.33206606 0.19157866 0.63568628
0.059689652 0.030977242 1.0027518
0.093930952 0.051121753 0.95434016
0.18243347 0.10311601 0.84438074
0.021024436 0.0082983123 1.0492337
0.15506263 0.086671934 0.87750632
0.2064355 0.11670817 0.80529559
0.25393426 0.14445825 0.74782842
0.29356629 0.16762765 0.68679571
0.33273277 0.19041838 0.63568628
0.059797417 0.030768698 1.0027518
0.093638554 0.050542563 0.9493686
0.18279231 0.10247856 0.84438074
0.021053273 0.0082248719 1.0492337
0.12737398 0.069835953 0.92406535
0.15536423 0.086130135 0.87750632
0.20684163 0.11598685 0.80529559
0.25443697 0.14357099 0.74782842
0.29414964 0.16660188 0.68679571
0.33339542 0.18925576 0.63568628
0.05990446 0.030559778 1.0027518
0.093814403 0.050215393 0.9493686
0.18314891 0.10183989 0.84438074
0.23262613 0.13039149 0.77941382
0.021081854 0.0081513328 1.0492337
0.12693349 0.069021352 0.91912609
0.15655689 0.08607658 0.88240159
0.20724526 0.11526414 0.80529559
0.25493658 0.14268196 0.74782842
0.29472938 0.1655741 0.68679571
0.33405402 0.18809085 0.63568628
0.060010768 0.030350486 1.0027518
0.093989119 0.049887616 0.9493686
0.18350329 0.10119995 0.84438074
0.23307985 0.12957868 0.77941382
0.021110181 0.0080776941 1.0492337
0.12648886 0.068210684 0.91418684
0.15684147 0.085556947 0.88240159
0.20762633 0.11457626 0.80529559
0.25538355 0.14188035 0.74782842
0.29524809 0.16464737 0.68679571
0.33461064 0.18709886 0.63568628
0.060090017 0.030193277 1.0027518
0.0941194 0.049641382 0.9493686
0.18375 0.10075127 0.84438074
0.23339577 0.12900877 0.77941382
0.021124247 0.008040837 1.0492337
0.12593412 0.06760186 0.90924758
0.15702033 0.085228264 0.88240159
0.20788576 0.11410487 0.80529559
0.25572947 0.1412559 0.74782842
0.2956495 0.16392544 0.68679571
0.33267158 0.18479775 0.63155329
0.060189813 0.029993843 1.0027518
0.094292112 0.049312543 0.9493686
0.18411806 0.10007711 0.84438074
0.2338894 0.12811165 0.77941382
0.021166058 0.0079301214 1.0492337
0.12627468 0.066963591 0.90924758
0.15744969 0.084432423 0.88240159
0.20844091 0.11308759 0.80529559
0.25470158 0.13906899 0.74322593
0.29434651 0.16132817 0.68240654
0.33353871 0.18322803 0.63155329
0.060325302 0.029720403 1.0027518
0.094506375 0.048900645 0.9493686
0.18455297 0.099272795 0.84438074
0.234424 0.12713081 0.77941382
0.27860555 0.15190043 0.71993876
0.021193611 0.0078561893 1.0492337
0.12581906 0.066162407 0.90430832
0.15684375 0.083405539 0.87750632
0.20883438 0.11235932 0.80529559
0.25518548 0.13817906 0.74322593
0.29490787 0.16029973 0.68240654
0.33417627 0.18206264 0.63155329
0.060428679 0.029509649 1.0027518
0.094676495 0.048570458 0.9493686
0.18489836 0.098627977 0.84438074
0.23486634 0.12631175 0.77941382
0.27913409 0.15092698 0.71993876
0.021220904 0.0077821622 1.0492337
0.12604924 0.065722816 0.90430832
0.15713394 0.082857542 0.87750632
0.20922531 0.11162965 0.80529559
0.25566626 0.13728745 0.74322593
0.29546562 0.15926933 0.68240654
0.33480975 0.18089505 0.63155329
0.060531314 0.029298533 1.0027518
0.094845459 0.048239682 0.9493686
0.18635319 0.098568581 0.84922016
0.23530582 0.12549114 0.77941382
0.27965921 0.1499517 0.71993876
0.02124794 0.0077080401 1.0492337
0.12627789 0.065282419 0.90430832
0.1574222 0.082308538 0.87750632
0.2096137 0.11089864 0.80529559
0.25614396 0.13639419 0.74322593
0.29601979 0.158237 0.68240654
0.33543915 0.17972524 0.63155329
0.06063322 0.029087059 1.0027518
0.095490366 0.048146084 0.95434016
0.18669613 0.097917482 0.84922016
0.23574242 0.124669 0.77941382
0.28018093 0.1489746 0.71993876
0.021274716 0.0076338239 1.0492337
0.126505 0.064841233 0.90430832
0.15678972 0.08131858 0.87261111
0.20998029 0.11020293 0.80529559
0.25657117 0.13558881 0.74322593
0.29439941 0.15618446 0.6780175
0.33597094 0.17872919 0.63155329
0.060709156 0.028928224 1.0027518
0.095616095 0.047895927 0.95434016
0.18693483 0.097461008 0.84922016
0.28054413 0.14828955 0.71993876
0.021288007 0.0075966809 1.0492337
0.12661798 0.064620346 0.90430832
0.15694556 0.08101742 0.87261111
0.21151505 0.11048977 0.81006759
0.2585842 0.1359596 0.74782842
0.29472587 0.15556753 0.6780175
0.33637559 0.17796643 0.63155329
0.060784683 0.028769188 1.0027518
0.09574116 0.047645442 0.95434016
0.18720625 0.096938603 0.84922016
0.28095713 0.14750554 0.71993876
0.021314396 0.0075223255 1.0492337
0.12684278 0.064177968 0.90430832
0.15722741 0.080469079 0.87261111
0.21189946 0.10975078 0.81006759
0.25905719 0.13505614 0.74782842
0.29526711 0.1545378 0.6780175
0.33699477 0.17679116 0.63155329
0.06088474 0.028556835 1.0027518
0.095906883 0.047310948 0.95434016
0.1875435 0.096284546 0.84922016
0.2814703 0.14652391 0.71993876
0.021348312 0.0074255266 1.0492337
0.1271438 0.06357953 0.90430832
0.15760486 0.079727277 0.87261111
0.25969073 0.13383387 0.74782842
0.29811954 0.1542446 0.68240654
0.33782414 0.17520115 0.63155329
0.061023567 0.028258955 1.0027518
0.096136943 0.0468417 0.95434016
0.18801178 0.095366888 0.84922016
0.28220832 0.14509739 0.71993876
0.021379229 0.0073360386 1.0492337
0.127398 0.063068628 0.90430832
0.15792364 0.079093963 0.87261111
0.26022589 0.13279033 0.74782842
0.2987363 0.15304664 0.68240654
0.33849436 0.17390272 0.63155329
0.061126731 0.028035102 1.0027518
0.096307978 0.046489023 0.95434016
0.18834354 0.09471003 0.84922016
0.23784019 0.12061877 0.77941382
0.28271306 0.14411141 0.71993876
0.021402169 0.0072688377 1.0492337
0.1275955 0.062668085 0.90430832
0.15908384 0.079049222 0.87750632
0.26064178 0.13197215 0.74782842
0.29921564 0.15210739 0.68240654
0.33903903 0.17283845 0.63155329
0.061214503 0.027842931 1.0027518
0.096453562 0.046186235 0.95434016
0.18864015 0.094117858 0.84922016
0.23821795 0.11987098 0.77941382
0.28316441 0.14322254 0.71993876
0.021424901 0.007201565 1.0492337
0.12779175 0.062266923 0.90430832
0.15933138 0.078549057 0.87750632
0.26103222 0.13119824 0.74782842
0.2996656 0.15121892 0.68240654
0.33955032 0.17183176 0.63155329
0.061292015 0.027671879 1.0027518
0.096582159 0.045916706 0.95434016
0.18890223 0.093590714 0.84922016
0.23700768 0.11843475 0.77472109
0.28356326 0.14243124 0.71993876
0.021442432 0.0071491925 1.0492337
0.12794352 0.061954483 0.90430832
0.15952285 0.078159496 0.87750632
0.25962654 0.12964238 0.74322593
0.30006048 0.15043387 0.68240654
0.34002885 0.17088287 0.63155329
0.061373852 0.027489901 1.0027518
0.096717969 0.045629941 0.95434016
0.23737858 0.11768959 0.77472109
0.28398463 0.14158927 0.71993876
0.021467257 0.0070743011 1.0492337
0.128159 0.061507501 0.90430832
0.1597947 0.077602185 0.87750632
0.26007751 0.12873532 0.74322593
0.30058375 0.14938556 0.68240654
0.34314227 0.17094919 0.63568628
0.061469436 0.027275499 1.0027518
0.096876658 0.045292053 0.95434016
0.23778795 0.11686027 0.77472109
0.28447711 0.14059711 0.71993876
0.021491818 0.0069993227 1.0492337
0.12837292 0.061059769 0.90430832
0.16006461 0.077043928 0.87750632
0.21451764 0.10454085 0.81006759
0.26052529 0.12782669 0.74322593
0.30110338 0.14833541 0.68240654
0.34373692 0.16975036 0.63568628
0.061564267 0.027060764 1.0027518
0.097034164 0.044953614 0.95434016
0.23819442 0.11602952 0.77472109
0.28496617 0.13960324 0.71993876
0.021516122 0.0069242604 1.0492337
0.12858528 0.060611293 0.90430832
0.16033256 0.076484725 0.87750632
0.21488127 0.10379141 0.81006759
0.2627272 0.12777019 0.74782842
0.30161935 0.14728345 0.68240654
0.34432736 0.16854946 0.63568628
0.061658353 0.026845697 1.0027518
0.097190492 0.044614628 0.95434016
0.18902448 0.090468951 0.84438074
0.24015245 0.1159468 0.77941382
0.16059858 0.07592459 0.87750632
0.2138954 0.10239713 0.80529559
0.26317158 0.12685232 0.74782842
0.30213162 0.14622971 0.68240654
0.3423816 0.16611868 0.63155329
0.061751686 0.026630307 1.0027518
0.097345635 0.044275098 0.95434016
0.18933913 0.089808583 0.84438074
0.2405557 0.1151078 0.77941382
0.16086262 0.075363539 0.87750632
0.21425152 0.10164987 0.80529559
0.26361278 0.1259329 0.74782842
0.30264023 0.14517419 0.68240654
0.3429594 0.16492254 0.63155329
0.061844267 0.026414592 1.0027518
0.097499594 0.043935027 0.95434016
0.18965144 0.089147121 0.84438074
0.24095604 0.1142674 0.77941382
0.16112471 0.074801564 0.87750632
0.21460503 0.10090137 0.80529559
0.26405078 0.12501195 0.74782842
0.30314514 0.14411689 0.68240654
0.34353301 0.16372436 0.63155329
0.061936095 0.026198555 1.0027518
0.097652361 0.043594424 0.95434016
0.18882154 0.087954946 0.83954132
0.24135344 0.11342563 0.77941382
0.16138484 0.07423868 0.87750632
0.21360242 0.099522218 0.80052364
0.26448554 0.12408949 0.74782842
0.30364636 0.14305784 0.68240654
0.34410238 0.16252422 0.63155329
0.062027168 0.025982197 1.0027518
0.097803943 0.043253291 0.95434016
0.1891274 0.087295301 0.83954132
0.24174789 0.11258245 0.77941382
0.021633688 0.0065476978 1.0492337
0.16164298 0.073674887 0.87750632
0.21394853 0.098775998 0.80052364
0.26491708 0.1231655 0.74782842
0.30197346 0.14098451 0.6780175
0.34466764 0.16132209 0.63155329
0.062117483 0.025765523 1.0027518
0.097954318 0.042911626 0.95434016
0.18828735 0.086112924 0.8347019
0.24213941 0.1117379 0.77941382
0.021656413 0.0064721419 1.0492337
0.16189918 0.0731102 0.87750632
0.21429202 0.098028578 0.80052364
0.26534536 0.12224002 0.74782842
0.30246374 0.13992956 0.6780175
0.34522864 0.16011798 0.63155329
0.062207043 0.025548536 1.0027518
0.098103516 0.04256944 0.95434016
0.18858682 0.085455164 0.8347019
0.24252798 0.110892 0.77941382
0.021678872 0.0063965078 1.0492337
0.13002776 0.05745158 0.90430832
0.16122337 0.072130151 0.87261111
0.2146329 0.097279966 0.80052364
0.26577047 0.12131305 0.74782842
0.30295032 0.13887292 0.6780175
0.34578547 0.15891194 0.63155329
0.062295847 0.025331238 1.0027518
0.097760789 0.042018533 0.9493686
0.18773673 0.084282696 0.82986248
0.24291359 0.11004474 0.77941382
0.021701068 0.006320795 1.0492337
0.13022751 0.056997351 0.90430832
0.16147417 0.071566939 0.87261111
0.21497117 0.096530162 0.80052364
0.26619229 0.1203846 0.74782842
0.30343327 0.13781457 0.6780175
0.34633809 0.15770395 0.63155329
0.06238389 0.025113629 1.0027518
0.097906858 0.041677028 0.9493686
0.18802978 0.083626851 0.82986248
0.24329624 0.10919615 0.77941382
0.021723002 0.0062450054 1.0492337
0.13042568 0.056542423 0.90430832
0.16172299 0.071002856 0.87261111
0.2153068 0.095779181 0.80052364
0.26661089 0.11945467 0.74782842
0.30391249 0.13675454 0.6780175
0.34688643 0.15649404 0.63155329
0.062471174 0.024895716 1.0027518
0.098051749 0.041335013 0.9493686
0.18832056 0.082970001 0.82986248
0.24367592 0.10834622 0.77941382
0.021744667 0.0061691399 1.0492337
0.13062225 0.056086808 0.90430832
0.16196986 0.070437901 0.87261111
0.21563981 0.095027044 0.80052364
0.26702628 0.11852331 0.74782842
0.30438799 0.13569286 0.6780175
0.34743059 0.15528223 0.63155329
0.062557697 0.0246775 1.0027518
0.098195434 0.040992498 0.9493686
0.18860902 0.082312137 0.82986248
0.2440526 0.10749497 0.77941382
0.02176607 0.0060931998 1.0492337
0.13081723 0.055630509 0.90430832
0.16221474 0.069872089 0.87261111
0.21597022 0.094273746 0.80052364
0.26743835 0.11759049 0.74782842
0.30485979 0.13462953 0.6780175
0.34797052 0.15406853 0.63155329
0.062643453 0.024458982 1.0027518
0.098337926 0.040649485 0.9493686
0.18889521 0.08165326 0.82986248
0.13101062 0.055173531 0.90430832
0.16245766 0.069305435 0.87261111
0.21629798 0.093519285 0.80052364
0.26784718 0.11665624 0.74782842
0.30752236 0.13452376 0.68240654
0.34850618 0.15285294 0.63155329
0.38907149 0.17102267 0.58547062
0.06272845 0.024240166 1.0027518
0.098973505 0.040505573 0.95434016
0.18917908 0.080993399 0.82986248
0.13120241 0.054715883 0.90430832
0.16269858 0.068737924 0.87261111
0.2166231 0.0927637 0.80052364
0.26825276 0.11572056 0.74782842
0.30799007 0.13344948 0.68240654
0.34903765 0.1516355 0.63155329
0.38966611 0.1696635 0.58547062
0.062812686 0.024021056 1.0027518
0.099114299 0.040159848 0.95434016
0.18946065 0.080332547 0.82986248
0.42514557 0.18606281 0.53584284
0.13139261 0.054257568 0.90430832
0.16293754 0.068169586 0.87261111
0.21694559 0.092006974 0.80052364
0.26865506 0.11478349 0.74782842
0.30845401 0.13237359 0.68240654
0.34956482 0.15041621 0.63155329
0.39025599 0.16830228 0.58547062
0.062896147 0.023801651 1.0027518
0.099253878 0.03981363 0.95434016
0.18973991 0.07967072 0.82986248
0.28987923 0.12364455 0.71543753
0.42252025 0.18315959 0.53233826
0.1631745 0.067600407 0.87261111
0.21726543 0.091249138 0.80052364
0.26905409 0.11384501 0.74782842
0.30891421 0.13129608 0.68240654
0.35008773 0.14919508 0.63155329
0.3908411 0.16693902 0.58547062
0.062978849 0.023581959 1.0027518
0.09939225 0.039466929 0.95434016
0.19001684 0.079007916 0.82986248
0.29030904 0.12263193 0.71543753
0.42315701 0.18168361 0.53233826
0.16340947 0.067030415 0.87261111
0.21758263 0.090490177 0.80052364
0.26764765 0.11215089 0.74322593
0.30937064 0.13021696 0.68240654
0.35060638 0.14797215 0.63155329
0.39142147 0.1655737 0.58547062
0.062788717 0.023265421 0.99776018
0.099529408 0.039119743 0.95434016
0.19029148 0.078344151 0.82986248
0.29073533 0.12161781 0.71543753
0.42050663 0.17881025 0.52883375
0.1645864 0.066841356 0.87750632
0.21789718 0.089730121 0.80052364
0.26803753 0.11121594 0.74322593
0.30982327 0.12913626 0.68240654
0.35112077 0.1467474 0.63155329
0.39199704 0.16420639 0.58547062
0.062869549 0.023046106 0.99776018
0.099665359 0.03877208 0.95434016
0.1905638 0.077679433 0.82986248
0.29115811 0.12060222 0.71543753
0.42112824 0.17734131 0.52883375
0.16481869 0.066266432 0.87750632
0.21820906 0.088968977 0.80052364
0.26842409 0.11027964 0.74322593
0.31027219 0.12805399 0.68240654
0.35163087 0.14552087 0.63155329
0.39256778 0.16283706 0.58547062
0.062949613 0.022826511 0.99776018
0.099301726 0.03823474 0.9493686
0.19083378 0.077013768 0.82986248
0.29157731 0.11958515 0.71543753
0.4217447 0.17587021 0.52883375
0.165049 0.065690711 0.87750632
0.21851829 0.088206738 0.80052364
0.26880741 0.10934199 0.74322593
0.31071728 0.12697016 0.68240654
0.3521367 0.14429256 0.63155329
0.39313382 0.16146575 0.58547062
0.063028902 0.022606635 0.99776018
0.099434584 0.037887882 0.9493686
0.19110145 0.076347165 0.82986248
0.29199296 0.11856662 0.71543753
0.42235601 0.17439699 0.52883375
0.16527732 0.065114178 0.87750632
0.21882486 0.087443426 0.80052364
0.26918745 0.10840301 0.74322593
0.3111586 0.12588479 0.68240654
0.35263821 0.14306249 0.63155329
0.39369509 0.16009247 0.58547062
0.063380823 0.022479236 1.0027518
0.099566236 0.037540555 0.9493686
0.19136678 0.07567963 0.82986248
0.42296222 0.17292163 0.52883375
0.13267902 0.051031165 0.90430832
0.16550359 0.064536855 0.87750632
0.21912876 0.086679056 0.80052364
0.26956421 0.10746272 0.74322593
0.31159613 0.12479787 0.68240654
0.35313547 0.14183067 0.63155329
0.3942515 0.15871724 0.58547062
0.063458897 0.022257859 1.0027518
0.099696666 0.037192777 0.9493686
0.1916298 0.075011179 0.82986248
0.24799924 0.098047093 0.77941382
0.42356324 0.17144415 0.52883375
0.13285634 0.050567716 0.90430832
0.16572785 0.063958749 0.87750632
0.21943 0.085913628 0.80052364
0.26993766 0.1065211 0.74322593
0.31202984 0.12370943 0.68240654
0.3536284 0.14059715 0.63155329
0.39480314 0.15734008 0.58547062
0.063536212 0.02203621 1.0027518
0.099825889 0.036844544 0.9493686
0.19189046 0.074341804 0.82986248
0.24833997 0.097180814 0.77941382
0.42415911 0.16996461 0.52883375
0.13303205 0.050103657 0.90430832
0.16595012 0.063379861 0.87750632
0.21972856 0.08514715 0.80052364
0.27030784 0.1055782 0.74322593
0.31245977 0.12261949 0.68240654
0.35411698 0.13936189 0.63155329
0.39534989 0.15596101 0.58547062
0.063612744 0.021814294 1.0027518
0.10045548 0.036676344 0.95434016
0.1921488 0.073671535 0.82986248
0.24706814 0.095690995 0.77472109
0.41441679 0.16288903 0.5610159
0.42474982 0.16848299 0.52883375
0.13320613 0.049638979 0.90430832
0.16521737 0.062441621 0.87261111
0.22002442 0.084379636 0.80052364
0.27067474 0.104634 0.74322593
0.31288591 0.12152806 0.68240654
0.35460132 0.13812494 0.63155329
0.39589193 0.15458003 0.58547062
0.063688502 0.02159211 1.0027518
0.10058288 0.036325466 0.95434016
0.19240479 0.073000357 0.82986248
0.24578895 0.094211236 0.77002829
0.41498283 0.16144145 0.5610159
0.42533535 0.16699928 0.52883375
0.1333786 0.049173702 0.90430832
0.16638853 0.062219776 0.87750632
0.22031763 0.083611101 0.80052364
0.27103832 0.10368853 0.74322593
0.31330821 0.12043514 0.68240654
0.35508129 0.13688631 0.63155329
0.39642909 0.15319717 0.58547062
0.063488521 0.021281701 0.99776018
0.10070908 0.035974145 0.95434016
0.19265844 0.072328299 0.82986248
0.24611631 0.093352698 0.77002829
0.3376393 0.1294308 0.66163921
0.41554385 0.15999189 0.5610159
0.42591569 0.16551358 0.52883375
0.022055134 0.0049457005 1.0492337
0.13354942 0.04870782 0.90430832
0.16660471 0.061638594 0.87750632
0.22060814 0.08284153 0.80052364
0.2713986 0.10274181 0.74322593
0.31372669 0.11934076 0.68240654
0.35555696 0.13564602 0.63155329
0.39696145 0.15181242 0.58547062
0.063562416 0.021059955 0.99776018
0.10083404 0.035622388 0.95434016
0.19290973 0.071655348 0.82986248
0.24644066 0.092493027 0.77002829
0.33808905 0.12825143 0.66163921
0.41609982 0.15854041 0.5610159
0.42649084 0.16402584 0.52883375
0.022072263 0.0048686839 1.0492337
0.13371864 0.048241355 0.90430832
0.16681886 0.061056659 0.87750632
0.22089598 0.082070954 0.80052364
0.27175561 0.10179382 0.74322593
0.31414136 0.11824492 0.68240654
0.35602829 0.13440406 0.63155329
0.39748895 0.15042584 0.58547062
0.063635543 0.020837951 0.99776018
0.10095777 0.035270192 0.95434016
0.19315869 0.070981525 0.82986248
0.24676202 0.091632217 0.77002829
0.33853465 0.1270705 0.66163921
0.41665065 0.15708698 0.5610159
0.43039396 0.16380426 0.53233826
0.022089124 0.0047916076 1.0492337
0.13388622 0.047774293 0.90430832
0.16607307 0.060128737 0.87261111
0.22118111 0.081299394 0.80052364
0.27210927 0.10084459 0.74322593
0.31455219 0.11714765 0.68240654
0.35649526 0.13316047 0.63155329
0.39801162 0.14903744 0.58547062
0.063707896 0.020615695 0.99776018
0.10108027 0.034917571 0.95434016
0.19340527 0.070306852 0.82986248
0.24546024 0.090176135 0.76533556
0.33897614 0.12588802 0.66163921
0.41719648 0.15563165 0.5610159
0.4309631 0.16230091 0.53233826
0.022105714 0.0047144732 1.0492337
0.13405216 0.047306653 0.90430832
0.16628195 0.059548669 0.87261111
0.22146355 0.080526821 0.80052364
0.27245966 0.099894136 0.74322593
0.3149592 0.11604893 0.68240654
0.35695791 0.13191526 0.63155329
0.39852944 0.14764722 0.58547062
0.063779466 0.020393185 0.99776018
0.10120153 0.034564521 0.95434016
0.19246626 0.069207177 0.82502306
0.24577351 0.089318767 0.76533556
0.33941352 0.124704 0.66163921
0.41773719 0.15417442 0.5610159
0.43152702 0.16079558 0.53233826
0.022122035 0.0046372814 1.0492337
0.13421647 0.046838436 0.90430832
0.1664888 0.05896787 0.87261111
0.2217433 0.079753287 0.80052364
0.27280667 0.098942466 0.74322593
0.31536236 0.11494882 0.68240654
0.35741621 0.13066845 0.63155329
0.39904237 0.14625518 0.58547062
0.063850269 0.020170432 0.99776018
0.10132157 0.034211051 0.95434016
0.19270666 0.068534926 0.82502306
0.24770805 0.089043163 0.77002829
0.33984673 0.12351847 0.66163921
0.41827282 0.1527153 0.5610159
0.43208569 0.15928829 0.53233826
0.13437915 0.046369649 0.90430832
0.16669361 0.058386359 0.87261111
0.22202033 0.078978777 0.80052364
0.27498958 0.098648481 0.74782842
0.31576169 0.11384729 0.68240654
0.35787016 0.12942004 0.63155329
0.39955047 0.14486137 0.58547062
0.063920282 0.019947428 0.99776018
0.10144038 0.033857163 0.95434016
0.19294472 0.06786184 0.82502306
0.24801736 0.088177964 0.77002829
0.34027585 0.12233143 0.66163921
0.41880333 0.15125433 0.5610159
0.43263903 0.15777907 0.53233826
0.13454019 0.045900293 0.90430832
0.16689642 0.057804134 0.87261111
0.22229466 0.078203291 0.80052364
0.27533224 0.097687989 0.74782842
0.3139011 0.1119406 0.6780175
0.35831973 0.12817004 0.63155329
0.40005371 0.1434658 0.58547062
0.06398952 0.019724185 0.99776018
0.10155794 0.033502866 0.95434016
0.19318043 0.06718792 0.82502306
0.24832365 0.087311678 0.77002829
0.43318719 0.1562679 0.53233826
0.1346996 0.045430385 0.90430832
0.16709717 0.057221208 0.87261111
0.22397649 0.077916294 0.80529559
0.27567157 0.096726306 0.74782842
0.31428993 0.11084419 0.6780175
0.35876495 0.12691849 0.63155329
0.40055203 0.14206849 0.58547062
0.064057983 0.019500699 0.99776018
0.1011667 0.032985289 0.9493686
0.19460283 0.066920757 0.82986248
0.24862692 0.086444333 0.77002829
0.43373001 0.15475485 0.53233826
0.13485736 0.044959918 0.90430832
0.16729589 0.056637581 0.87261111
0.22424711 0.077133998 0.80529559
0.27600753 0.095763452 0.74782842
0.31467494 0.10974645 0.6780175
0.35920578 0.1256654 0.63155329
0.40104553 0.14066944 0.58547062
0.064125665 0.019276977 0.99776018
0.10128122 0.032631952 0.9493686
0.19483526 0.066241056 0.82986248
0.25055942 0.086136058 0.77472109
0.43426755 0.15323991 0.53233826
0.16749257 0.056053262 0.87261111
0.22451498 0.076350756 0.80529559
0.27634013 0.094799414 0.74782842
0.31505612 0.10864736 0.6780175
0.35964227 0.12441077 0.63155329
0.40153411 0.13926867 0.58547062
0.064192563 0.01905302 0.99776018
0.10139451 0.032278214 0.9493686
0.19506529 0.065560549 0.82986248
0.25085855 0.08526092 0.77472109
0.4381671 0.15289769 0.53584284
0.16768721 0.055468265 0.87261111
0.22478011 0.075566582 0.80529559
0.27666932 0.093834229 0.74782842
0.31543344 0.10754694 0.6780175
0.36007434 0.12315463 0.63155329
0.40201777 0.1378662 0.58547062
0.06425868 0.018828828 0.99776018
0.10150656 0.031924084 0.9493686
0.19529295 0.064879246 0.82986248
0.25115463 0.084384739 0.77472109
0.022228731 0.0040954072 1.0492337
0.16787982 0.05488259 0.87261111
0.22362565 0.074311808 0.80052364
0.27699521 0.092867903 0.74782842
0.31807667 0.10720952 0.68240654
0.36050203 0.12189698 0.63155329
0.40249658 0.13646206 0.58547062
0.064324014 0.018604409 0.99776018
0.10161737 0.031569567 0.9493686
0.19551823 0.064197153 0.82986248
0.25308567 0.084050529 0.77941382
0.022242891 0.0040177898 1.0492337
0.16807036 0.054296248 0.87261111
0.22388367 0.073530756 0.80052364
0.2773177 0.091900446 0.74782842
0.31844896 0.10609856 0.68240654
0.36092532 0.12063786 0.63155329
0.40297049 0.13505624 0.58547062
0.064388566 0.018379763 0.99776018
0.10172695 0.031214664 0.9493686
0.19574112 0.063514277 0.82986248
0.25337753 0.083166577 0.77941382
0.02225678 0.0039401227 1.0492337
0.16922931 0.054017454 0.87750632
0.22413899 0.07274881 0.80052364
0.2776368 0.09093187 0.74782842
0.31881735 0.10498632 0.68240654
0.36134422 0.11937726 0.63155329
0.40343943 0.1336488 0.58547062
0.064452328 0.018154891 0.99776018
0.1018353 0.030859379 0.9493686
0.19596164 0.06283062 0.82986248
0.25366628 0.082281619 0.77941382
0.29955247 0.097909398 0.71543753
0.022270398 0.0038624082 1.0492337
0.16941684 0.053426404 0.87750632
0.22439156 0.071965978 0.80052364
0.27795249 0.089962177 0.74782842
0.31918192 0.1038728 0.68240654
0.36175874 0.1181152 0.63155329
0.40390351 0.13223971 0.58547062
0.064515308 0.0179298 0.99776018
0.1019424 0.03050372 0.9493686
0.19617978 0.062146202 0.82986248
0.29989243 0.096863173 0.71543753
0.022283744 0.0037846463 1.0492337
0.13591556 0.041651636 0.90430832
0.16960229 0.052834701 0.87750632
0.2260647 0.071632117 0.80529559
0.27826485 0.088991404 0.74782842
0.31954256 0.10275802 0.68240654
0.36216885 0.11685171 0.63155329
0.40436268 0.13082904 0.58547062
0.064577498 0.017704491 0.99776018
0.10204825 0.030147688 0.9493686
0.1963955 0.061461031 0.82986248
0.30022869 0.09581577 0.71543753
0.02229682 0.0037068385 1.0492337
0.13606013 0.041176949 0.90430832
0.16978569 0.052242361 0.87750632
0.22631337 0.070842572 0.80529559
0.27857378 0.08801952 0.74782842
0.31989929 0.10164198 0.68240654
0.36257452 0.11558679 0.63155329
0.064638905 0.017478965 0.99776018
0.10215287 0.029791292 0.9493686
0.19660886 0.060775109 0.82986248
0.30056131 0.094767191 0.71543753
0.022309624 0.0036289857 1.0492337
0.13620305 0.040701758 0.90430832
0.16996701 0.051649377 0.87750632
0.22655928 0.070052162 0.80529559
0.27887931 0.087046586 0.74782842
0.31796688 0.099808112 0.6780175
0.36297578 0.11432046 0.63155329
0.064699531 0.017253228 0.99776018
0.10225624 0.02943453 0.9493686
0.1968198 0.060088445 0.82986248
0.2547904 0.078731865 0.77941382
0.3008903 0.093717456 0.71543753
0.022322156 0.0035510887 1.0492337
0.13634428 0.040226072 0.90430832
0.16917059 0.050764538 0.87261111
0.22537449 0.06882596 0.80052364
0.27918148 0.086072579 0.74782842
0.31831333 0.098697595 0.6780175
0.36337262 0.11305274 0.63155329
0.064759359 0.017027279 0.99776018
0.10235836 0.029077411 0.9493686
0.19702834 0.05940105 0.82986248
0.25506365 0.077841997 0.77941382
0.30121559 0.092666589 0.71543753
0.022334415 0.0034731482 1.0492337
0.13648386 0.039749898 0.90430832
0.16934676 0.050173707 0.87261111
0.22561336 0.068038836 0.80052364
0.27948025 0.085097536 0.74782842
0.31865594 0.097585872 0.6780175
0.36376503 0.11178365 0.63155329
0.064818397 0.016801123 0.99776018
0.10245923 0.028719934 0.9493686
0.1972345 0.058712929 0.82986248
0.25368127 0.07645414 0.77472109
0.30153722 0.091614582 0.71543753
0.022346403 0.0033951651 1.0492337
0.13662179 0.039273236 0.90430832
0.16952088 0.049582273 0.87261111
0.22584949 0.067250885 0.80052364
0.27977559 0.084121451 0.74782842
0.31899461 0.096472956 0.6780175
0.36415303 0.11051319 0.63155329
0.064876653 0.016574763 0.99776018
0.10255886 0.02836211 0.9493686
0.19743824 0.058024094 0.82986248
0.2539466 0.075568162 0.77472109
0.30185521 0.090561457 0.71543753
0.34621182 0.10435513 0.66163921
0.022358116 0.0033171414 1.0492337
0.16969292 0.048990235 0.87261111
0.22608286 0.066462122 0.80052364
0.2800675 0.083144344 0.74782842
0.31932941 0.095358871 0.6780175
0.36453658 0.10924139 0.63155329
0.064934112 0.0163482 0.99776018
0.10265724 0.02800394 0.9493686
0.19763957 0.057334553 0.82986248
0.25420886 0.074681267 0.77472109
0.30216947 0.089507237 0.71543753
0.34657398 0.10314597 0.66163921
0.02236956 0.0032390766 1.0492337
0.17084253 0.048675179 0.87750632
0.22631347 0.065672532 0.80052364
0.27848101 0.081617564 0.74322593
0.31966037 0.094243623 0.6780175
0.36491567 0.10796826 0.63155329
0.064990781 0.016121438 0.99776018
0.10326977 0.027781509 0.95434016
0.1978385 0.056644317 0.82986248
0.25446799 0.073793456 0.77472109
0.30248004 0.088451929 0.71543753
0.3469319 0.10193559 0.66163921
0.42703652 0.12615038 0.5610159
0.022424012 0.0031554506 1.0542334
0.1710114 0.04807853 0.87750632
0.22797666 0.065292098 0.80529559
0.27876419 0.08064498 0.74322593
0.31998736 0.093127228 0.6780175
0.36529034 0.1066938 0.63155329
0.065046661 0.01589448 0.99776018
0.10336611 0.027420862 0.95434016
0.19803503 0.055953383 0.82986248
0.25472403 0.072904743 0.77472109
0.30487874 0.087998502 0.71993876
0.3472856 0.10072394 0.66163921
0.42747426 0.12465898 0.5610159
0.02243489 0.0030771571 1.0542334
0.17117819 0.047481291 0.87750632
0.22820318 0.064495914 0.80529559
0.27904397 0.07967142 0.74322593
0.3203105 0.092009693 0.6780175
0.36566052 0.10541805 0.63155329
0.06538333 0.015730992 1.0027518
0.1034612 0.027059879 0.95434016
0.19822913 0.055261772 0.82986248
0.25497696 0.072015151 0.77472109
0.30518407 0.086933739 0.71993876
0.34763509 0.099511079 0.66163921
0.42790681 0.12316605 0.5610159
0.022445496 0.0029988259 1.0542334
0.13728639 0.036882877 0.90430832
0.17134289 0.046883479 0.87750632
0.22842692 0.06369894 0.80529559
0.28120109 0.079225883 0.74782842
0.32062975 0.090891048 0.6780175
0.36602628 0.10414101 0.63155329
0.065437846 0.015502665 1.0027518
0.10355502 0.026698567 0.95434016
0.19842082 0.054569487 0.82986248
0.25522679 0.071124673 0.77472109
0.30548567 0.085867912 0.71993876
0.34798035 0.098296992 0.66163921
0.022455826 0.0029204583 1.0542334
0.13741431 0.036403432 0.90430832
0.1715055 0.046285097 0.87750632
0.22864789 0.062901191 0.80529559
0.2814759 0.078243822 0.74782842
0.32325169 0.090415739 0.68240654
0.36638758 0.1028627 0.63155329
0.065491557 0.01527415 1.0027518
0.10364759 0.026336931 0.95434016
0.1986101 0.053876542 0.82986248
0.25547352 0.07023333 0.77472109
0.30578354 0.084801055 0.71993876
0.34832132 0.097081721 0.66163921
0.022465885 0.0028420552 1.0542334
0.13754055 0.035923548 0.90430832
0.17166603 0.045686152 0.87750632
0.22886606 0.062102679 0.80529559
0.28174734 0.077260807 0.74782842
0.3235653 0.089286834 0.68240654
0.3667444 0.10158315 0.63155329
0.065544479 0.015045449 1.0027518
0.10373889 0.025974974 0.95434016
0.20001152 0.053506561 0.8347019
0.25571713 0.069341138 0.77472109
0.30607769 0.083733149 0.71993876
0.34865808 0.095865257 0.66163921
0.022475667 0.0027636169 1.0542334
0.13766509 0.03544322 0.90430832
0.17182444 0.045086645 0.87750632
0.22908144 0.061303407 0.80529559
0.28201532 0.076276861 0.74782842
0.32387501 0.088156827 0.68240654
0.36709675 0.10030235 0.63155329
0.065596595 0.014816564 1.0027518
0.10382894 0.025612699 0.95434016
0.2001971 0.052808065 0.8347019
0.2559576 0.068448089 0.77472109
0.30636808 0.082664229 0.71993876
0.34899062 0.094647631 0.66163921
0.022485178 0.0026851459 1.0542334
0.17198078 0.04448659 0.87750632
0.22929403 0.060503393 0.80529559
0.28227985 0.075291976 0.74782842
0.32418078 0.087025762 0.68240654
0.36744463 0.099020332 0.63155329
0.065365262 0.014528759 0.99776018
0.1039177 0.025250109 0.95434016
0.20038021 0.052108925 0.8347019
0.25786385 0.067993283 0.77941382
0.30665478 0.081594296 0.71993876
0.34931886 0.09342885 0.66163921
0.022451278 0.0026132185 1.0492337
0.17213501 0.043885995 0.87750632
0.22950383 0.059702639 0.80529559
0.28254095 0.074306175 0.74782842
0.32448259 0.085893624 0.68240654
0.36778805 0.097737104 0.63155329
0.065415584 0.014300503 0.99776018
0.10348621 0.024765581 0.9493686
0.2017788 0.051720046 0.83954132
0.25809962 0.067092761 0.77941382
0.30693772 0.080523379 0.71993876
0.34964284 0.092208937 0.66163921
0.022460263 0.0025348333 1.0492337
0.17228715 0.043284867 0.87750632
0.22971083 0.058901157 0.80529559
0.28279859 0.073319472 0.74782842
0.3247804 0.08476045 0.68240654
0.36812696 0.096452706 0.63155329
0.0654651 0.014072073 0.99776018
0.10357202 0.024404196 0.9493686
0.20317709 0.051322032 0.84438074
0.25833225 0.066191413 0.77941382
0.30721694 0.079451479 0.71993876
0.34996259 0.090987891 0.66163921
0.022468977 0.0024564168 1.0492337
0.17243721 0.042683206 0.87750632
0.22991504 0.058098961 0.80529559
0.2830528 0.072331876 0.74782842
0.32507429 0.08362624 0.68240654
0.3684614 0.0951671 0.63155329
0.065513819 0.013843471 0.99776018
0.10365658 0.024042513 0.9493686
0.20335501 0.050612502 0.84438074
0.25856173 0.065289266 0.77941382
0.30749241 0.078378603 0.71993876
0.35027808 0.089765735 0.66163921
0.022477413 0.0023779706 1.0492337
0.17258516 0.042081028 0.87750632
0.23156518 0.057655655 0.81006759
0.28330359 0.071343392 0.74782842
0.32536423 0.08249101 0.68240654
0.36879134 0.093880355 0.63155329
0.065561742 0.013614701 0.99776018
0.10373987 0.023680538 0.9493686
0.20475154 0.05020047 0.84922016
0.25878805 0.064386316 0.77941382
0.30565259 0.076775178 0.71543753
0.35058928 0.088542491 0.66163921
0.022485577 0.0022994953 1.0492337
0.13837717 0.032552406 0.90430832
0.172731 0.041478336 0.87750632
0.23176503 0.056846991 0.81006759
0.28355089 0.070354052 0.74782842
0.32565019 0.081354767 0.68240654
0.36911681 0.092592463 0.63155329
0.065608874 0.013385765 0.99776018
0.1038219 0.023318274 0.9493686
0.25901121 0.06348259 0.77941382
0.30591872 0.075707786 0.71543753
0.35089624 0.087318167 0.66163921
0.022493467 0.0022209915 1.0492337
0.13848996 0.032069184 0.90430832
0.17287472 0.040875141 0.87750632
0.23341325 0.056387112 0.81483954
0.28379473 0.06936384 0.74782842
0.3259322 0.080217548 0.68240654
0.36943775 0.091303438 0.63155329
0.065655194 0.013156665 0.99776018
0.10390266 0.022955727 0.9493686
0.20509702 0.048769828 0.84922016
0.25923124 0.062578082 0.77941382
0.30618113 0.074639469 0.71543753
0.35119888 0.086092785 0.66163921
0.022501083 0.0021424615 1.0492337
0.13860106 0.031585567 0.90430832
0.17301635 0.040271446 0.87750632
0.23360868 0.055571999 0.81483954
0.32621023 0.079079337 0.68240654
0.36975425 0.090013295 0.63155329
0.065700725 0.012927406 0.99776018
0.10450359 0.022703638 0.95434016
0.20526598 0.048053604 0.84922016
0.25776899 0.061274651 0.77472109
0.30643979 0.073570237 0.71543753
0.35149726 0.084866337 0.66163921
0.022508424 0.0020639049 1.0492337
0.17315586 0.039667264 0.87750632
0.23380122 0.054756217 0.81483954
0.32648426 0.077940173 0.68240654
0.3700662 0.088722073 0.63155329
0.065745443 0.012697989 0.99776018
0.10458221 0.022338713 0.95434016
0.20420736 0.047055759 0.84438074
0.2579813 0.060374495 0.77472109
0.30669472 0.072500117 0.71543753
0.022515491 0.0019853231 1.0492337
0.17329328 0.039062589 0.87750632
0.23399092 0.05393976 0.81483954
0.32675436 0.076800056 0.68240654
0.37037364 0.087429762 0.63155329
0.066073731 0.012518251 1.0027518
0.10518173 0.02208061 0.95931166
0.20437035 0.046342652 0.84438074
0.25819048 0.059473604 0.77472109
0.30906641 0.071921773 0.71993876
0.022522284 0.0019067174 1.0492337
0.17342857 0.038457446 0.87750632
0.23272185 0.052793473 0.81006759
0.32702044 0.075658999 0.68240654
0.37067655 0.086136386 0.63155329
0.066117026 0.012287533 1.0027518
0.10525817 0.021713326 0.95931166
0.20330378 0.045356497 0.83954132
0.26007968 0.058952548 0.77941382
0.30931556 0.070842497 0.71993876
0.35490826 0.081765786 0.66590512
0.022528801 0.0018280885 1.0492337
0.17356175 0.037851837 0.87750632
0.23290472 0.051980801 0.81006759
0.32494718 0.073986016 0.6780175
0.37371826 0.085468739 0.63568628
0.066159509 0.012056667 1.0027518
0.10533332 0.021345772 0.95931166
0.20346087 0.044646561 0.83954132
0.26028389 0.05804434 0.77941382
0.3551915 0.080526426 0.66590512
0.022535047 0.0017494372 1.0492337
0.17369282 0.037245758 0.87750632
0.23308474 0.051167496 0.81006759
0.32520345 0.072851293 0.6780175
0.37401435 0.084163703 0.63568628
0.066201195 0.011825655 1.0027518
0.10540719 0.020977959 0.95931166
0.20361549 0.043936078 0.83954132
0.26048493 0.057135429 0.77941382
0.022541016 0.0016707645 1.0492337
0.13923214 0.028675998 0.90430832
0.17382178 0.036639232 0.87750632
0.23326193 0.050353568 0.81006759
0.32545578 0.071715675 0.6780175
0.37430584 0.082857631 0.63568628
0.066527091 0.011640354 1.0077435
0.10547977 0.020609893 0.95931166
0.20376761 0.043225057 0.83954132
0.26068276 0.056225818 0.77941382
0.02254671 0.0015920715 1.0492337
0.13933139 0.028189812 0.90430832
0.17394863 0.036032259 0.87750632
0.23197585 0.049230203 0.80529559
0.28562084 0.061412781 0.74782842
0.32804492 0.071085706 0.68240654
0.37459278 0.081550561 0.63568628
0.066567317 0.01140806 1.0077435
0.10555107 0.020241573 0.95931166
0.20391725 0.042513512 0.83954132
0.022552131 0.0015133591 1.0492337
0.13942894 0.027703281 0.90430832
0.17407334 0.035424843 0.87750632
0.23214629 0.048420154 0.80529559
0.28583348 0.060415406 0.74782842
0.32829106 0.069940187 0.68240654
0.37487519 0.080242492 0.63568628
0.06660673 0.011175627 1.0077435
0.10562108 0.019873008 0.95931166
0.20406441 0.041801449 0.83954132
0.022557277 0.0014346283 1.0492337
0.13952479 0.027216416 0.90430832
